# .PCD v0.7 - Point Cloud Data file format
VERSION 0.7
FIELDS x y z intensity ring
SIZE 4 4 4 4 2
TYPE F F F F U
COUNT 1 1 1 1 1
WIDTH 1191
HEIGHT 1
VIEWPOINT 0 0 0 1 0 0 0
POINTS 1191
DATA ascii
-0.48363191 -0.21532676 0.083848879 17 12
-0.46475688 -0.20663156 0.11742445 13 14
-0.44491088 -0.19762203 0.13044479 12 15
-0.47871506 -0.21193746 -0.14027993 11 0
-0.47727847 -0.21120198 0.0091101564 10 8
-0.47406363 -0.2096803 -0.11967396 14 1
-0.47129053 -0.20835541 0.027005356 15 9
-0.50456542 -0.22306608 -0.10723466 8 2
-0.4701778 -0.20776525 0.044972364 13 10
-0.45535704 -0.2011213 -0.078842975 11 3
-0.45766717 -0.20195064 -0.061422151 10 4
-0.47895837 -0.21124588 0.082910277 15 12
-0.45477471 -0.20029525 0.11472505 13 14
-0.44559801 -0.1960678 0.13044479 12 15
-0.48302725 -0.21173257 -0.14131519 11 0
-0.47801286 -0.20953454 0.0091101564 11 8
-0.47836256 -0.20958832 -0.12057376 14 1
-0.46835595 -0.20510663 0.026796013 15 9
-0.51437217 -0.22515146 -0.10914275 9 2
-0.45998406 -0.20124902 0.043926492 13 10
-0.45609114 -0.19945098 -0.078842975 11 3
-0.46382612 -0.20273712 -0.062153373 10 4
-0.47969285 -0.20957272 0.082910277 15 12
-0.45647267 -0.19933307 -0.043577868 10 5
-0.45193321 -0.19706909 0.11382524 13 14
-0.44982156 -0.196055 0.13148008 12 15
-0.48730746 -0.21158399 -0.14235048 11 0
-0.46777132 -0.20300457 0.0089007281 10 8
-0.47912753 -0.20783362 -0.12057376 14 1
-0.46540445 -0.20188087 0.026586669 15 9
-0.5043475 -0.21866883 -0.10685304 9 2
-0.46433994 -0.20122659 0.044275116 13 10
-0.46403512 -0.20099831 -0.080094457 11 3
-0.45545688 -0.19709383 -0.060934674 11 4
-0.47316977 -0.2047589 0.081658795 15 12
-0.45231652 -0.19554746 0.095786124 11 13
-0.44904029 -0.19394508 0.11292543 13 14
-0.44340861 -0.19142088 0.12940952 15 15
-0.47739491 -0.20530246 -0.13924466 11 0
-0.47579002 -0.20461227 0.0090403464 10 8
-0.4941369 -0.21240026 -0.12417299 14 1
-0.47344658 -0.2034087 0.027005356 14 9
-0.51593143 -0.22155499 -0.10914275 9 2
-0.46469909 -0.19945849 -0.080094457 11 3
-0.47070348 -0.20184104 -0.062884584 10 4
-0.46843478 -0.20077144 0.080720194 17 12
-0.46043032 -0.19705543 0.11562484 13 14
-0.44407412 -0.18987192 0.12940952 13 15
-0.48518193 -0.20674746 -0.14131519 11 0
-0.47282174 -0.20138313 0.0089705363 10 8
-0.48053113 -0.20456748 -0.12057376 14 1
-0.47047809 -0.20019081 0.026796013 15 9
-0.50943726 -0.21676813 -0.10761628 9 2
-0.45836502 -0.1949423 0.043577868 14 10
-0.45448485 -0.19319828 -0.078217238 12 3
-0.46409649 -0.19709301 -0.061909631 10 4
-0.47458777 -0.20145056 0.081658795 15 12
-0.45752695 -0.19392604 0.11472505 13 14
-0.44829214 -0.18982711 0.13044479 12 15
-0.48237649 -0.20346631 -0.14027993 11 0
-0.46983686 -0.19817711 0.0089007281 10 8
-0.47405955 -0.19986066 -0.11877415 14 1
-0.47485507 -0.20009857 0.027005356 15 9
-0.51203769 -0.21566156 -0.1079979 8 2
-0.45907646 -0.19326088 0.043577868 14 10
-0.45518988 -0.19153132 -0.078217238 12 3
-0.46478167 -0.19547167 -0.061909631 10 4
-0.46436194 -0.19519977 0.079781592 15 12
-0.45823461 -0.19224791 0.11472505 13 14
-0.49377936 -0.20624861 -0.14338575 11 0
-0.47794136 -0.19953534 0.0090403464 10 8
-0.48198262 -0.20112374 -0.12057376 14 1
-0.48660991 -0.20305465 0.027633386 16 9
-0.50553948 -0.21084993 -0.10647143 8 2
-0.46710423 -0.19472383 0.044275116 13 10
-0.46679628 -0.19449982 -0.080094457 11 3
-0.45816433 -0.19071552 -0.060934674 11 4
-0.47598252 -0.19813251 0.081658795 15 12
-0.45988196 -0.19133621 -0.043577868 10 5
-0.44960642 -0.18669292 0.13044479 12 15
-0.49092582 -0.20304711 -0.14235048 11 0
-0.48229614 -0.19947788 0.0091101564 10 8
-0.48624876 -0.2010133 -0.12147357 14 1
-0.46147329 -0.19067679 0.026167979 16 9
-0.50264311 -0.20758528 -0.10570819 8 2
-0.4640978 -0.19157173 0.043926492 13 10
-0.46378681 -0.19144335 -0.07946872 11 3
-0.46613497 -0.19222224 -0.061909631 10 4
-0.46206063 -0.19044776 0.079155855 15 12
-0.44668189 -0.18365313 0.12940952 15 15
-0.47014505 -0.19262888 -0.13613883 11 0
-0.47558743 -0.19476181 0.0089705363 10 8
-0.49416152 -0.20226756 -0.12327318 14 1
-0.47692442 -0.19511499 0.027005356 16 9
-0.4978776 -0.20368715 -0.10456334 9 2
-0.4668031 -0.19059394 -0.061909631 10 4
-0.46272266 -0.18883358 0.079155855 15 12
-0.45297131 -0.18457752 0.11292543 13 14
-0.4744285 -0.19235615 -0.1371741 11 0
-0.46514535 -0.18859231 0.0087611079 10 8
-0.48764026 -0.19761376 -0.12147357 14 1
-0.47390026 -0.1919494 0.026796013 15 9
-0.5077197 -0.20554456 -0.10647143 8 2
-0.47482729 -0.19193915 -0.062884584 10 4
-0.46704212 -0.1886972 0.079781592 15 12
-0.46087417 -0.18583117 0.11472505 13 14
-0.44795313 -0.18053022 0.12940952 13 15
-0.48585397 -0.19501674 -0.14027993 11 0
-0.48112628 -0.19292401 -0.11967396 14 1
-0.46718493 -0.18723913 0.026377324 15 9
-0.49749997 -0.19938883 -0.10418171 8 2
-0.46446875 -0.1857743 -0.061422151 10 4
-0.47506747 -0.18991731 0.081033058 15 12
-0.46513978 -0.18566614 0.11562484 13 14
-0.45220065 -0.18031839 0.13044479 11 15
-0.49012238 -0.19474618 -0.14131519 10 0
-0.4702 -0.18673517 0.008830918 10 8
-0.47817421 -0.18980557 -0.11877415 14 1
-0.47897464 -0.1900264 0.027005356 16 9
-0.50549251 -0.20054698 -0.10570819 8 2
-0.46302316 -0.18360434 0.043577868 14 10
-0.46277398 -0.18341224 -0.078842975 11 3
-0.47572759 -0.18825774 0.081033058 15 12
-0.46685648 -0.18474722 -0.043926492 10 5
-0.44923347 -0.17732023 0.12940952 13 15
-0.48720363 -0.19161998 -0.14027993 10 0
-0.48201528 -0.18948238 0.0090403464 10 8
-0.48608896 -0.19098568 -0.12057376 14 1
-0.46844864 -0.18405475 0.026377324 15 9
-0.50618947 -0.19878127 -0.10570819 8 2
-0.47107977 -0.18489887 0.044275116 13 10
-0.46341148 -0.1817956 -0.078842975 11 3
-0.46572253 -0.18260846 -0.061422151 10 4
-0.46347484 -0.18163395 0.078842975 12 12
-0.45550424 -0.17823513 0.11292543 13 14
-0.44981903 -0.17582951 0.12940952 13 15
-0.48063585 -0.18719879 -0.13820937 11 0
-0.47146013 -0.18353041 0.008830918 10 8
-0.48308736 -0.18795957 -0.11967396 13 1
-0.47277904 -0.18394881 0.026586669 14 9
-0.50135666 -0.1949669 -0.10456334 9 2
-0.48125398 -0.1856039 -0.13820937 11 0
-0.49098179 -0.1891589 -0.12147357 14 1
-0.46596286 -0.17942642 0.026167979 16 9
-0.49650404 -0.19118679 -0.10341848 8 2
-0.46762416 -0.17931697 0.11562484 13 14
-0.48189887 -0.18392298 -0.13820937 11 0
-0.47643521 -0.18174246 0.0089007281 10 8
-0.46614668 -0.17772457 -0.11517494 13 1
-0.47031903 -0.17922132 0.026377324 15 9
-0.51184487 -0.19504529 -0.10647143 8 2
-0.46547964 -0.17728418 0.043577868 14 10
-0.46386725 -0.17639203 -0.060934674 11 4
-0.47455323 -0.1803606 0.080407321 15 12
-0.45731544 -0.1735352 0.11292543 13 14
-0.48976701 -0.18496989 -0.14027993 11 0
-0.47332501 -0.17866588 0.008830918 10 8
-0.47770411 -0.18022346 -0.11787436 14 1
-0.46720409 -0.17616913 0.026167979 16 9
-0.50520784 -0.19039853 -0.10494495 8 2
-0.47355318 -0.17846879 0.044275116 13 10
-0.47148204 -0.17731233 0.079781592 15 12
-0.45943576 -0.17232457 0.13148008 12 15
-0.48320264 -0.18046999 -0.13820937 11 0
-0.4739767 -0.17692985 0.008830918 10 8
-0.48201296 -0.17983386 -0.11877415 14 1
-0.46784669 -0.17445543 0.026167979 16 9
-0.48934549 -0.18237498 -0.10151039 9 2
-0.47047025 -0.17534034 0.043926492 13 10
-0.46278104 -0.17238267 -0.078217238 12 3
-0.46287125 -0.17214033 0.078217238 12 12
-0.45281914 -0.16795236 0.12940952 13 15
-0.48386088 -0.17869763 -0.13820937 10 0
-0.49363863 -0.18211293 -0.12147357 14 1
-0.47220042 -0.17420396 0.026377324 14 9
-0.50655735 -0.18677847 -0.10494495 8 2
-0.46340972 -0.17068532 -0.078217238 12 3
-0.46947482 -0.17273304 -0.061422151 10 4
-0.48085257 -0.17568175 -0.1371741 11 0
-0.47959572 -0.17512755 -0.11787436 13 1
-0.51458383 -0.18770015 -0.10647143 8 2
-0.47148672 -0.17160717 0.07946872 12 12
-0.46338609 -0.16838408 0.11382524 13 14
-0.48869953 -0.17671381 -0.13924466 10 0
-0.47653842 -0.17212832 -0.11697455 14 1
-0.46964785 -0.16954675 0.026167979 16 9
-0.51151019 -0.18465939 -0.10570819 8 2
-0.46877211 -0.16886079 -0.061178416 10 4
-0.4739415 -0.17062947 0.079781592 15 12
-0.46763879 -0.16808383 0.11472505 13 14
-0.49295136 -0.17630814 -0.14027993 10 0
-0.47263479 -0.16894858 0.0087611079 10 8
-0.46979576 -0.16784129 -0.11517494 13 1
-0.50845379 -0.18155248 -0.10494495 8 2
-0.47453421 -0.16897406 0.079781592 15 12
-0.48627868 -0.17200939 -0.13820937 11 0
-0.48830444 -0.17262994 0.0090403464 10 8
-0.47772846 -0.16879737 -0.11697455 13 1
-0.5016796 -0.1771615 -0.10341848 8 2
-0.46944481 -0.16559406 -0.078842975 11 3
-0.47593513 -0.16648357 -0.13510354 10 0
-0.4813534 -0.16828474 0.0089007281 10 8
-0.4930321 -0.17227116 -0.12057376 14 1
-0.49858803 -0.17411469 -0.10265525 8 2
-0.46628964 -0.16265313 -0.078217238 12 3
-0.47197133 -0.1643578 0.079155855 15 12
-0.48381627 -0.16734734 -0.1371741 10 0
-0.47815797 -0.16529676 0.008830918 10 8
-0.47889528 -0.16545795 -0.11697455 13 1
-0.47949198 -0.16566412 0.026586669 14 9
-0.5103271 -0.17621808 -0.10494495 8 2
-0.47108403 -0.16229931 -0.061178416 8 4
-0.4625684 -0.1590042 0.11292543 13 14
-0.48439747 -0.16565746 -0.1371741 10 0
-0.47575328 -0.16260853 -0.11607475 14 1
-0.52208686 -0.17824149 -0.10723466 8 2
-0.46933937 -0.15986753 0.07853011 15 12
-0.46309316 -0.15746938 0.11292543 13 14
-0.45730501 -0.15532324 0.12940952 12 15
-0.49226409 -0.16652645 -0.13924466 10 0
-0.48001036 -0.16219449 -0.11697455 14 1
-0.51895493 -0.17525288 -0.10647143 8 2
-0.48109877 -0.16209465 0.080407321 15 12
-0.49284241 -0.16480711 -0.13924466 10 0
-0.47601378 -0.15917961 0.0087611079 10 8
-0.47684908 -0.15936652 -0.11607475 13 1
-0.50466573 -0.16846712 -0.10341848 8 2
-0.48238128 -0.15953232 -0.13613883 10 0
-0.48480409 -0.16014589 -0.11787436 13 1
-0.49776444 -0.16433075 -0.10189201 8 2
-0.472837 -0.15564382 0.078842975 12 12
-0.4737539 -0.15484674 -0.13355063 9 0
-0.47795004 -0.1560335 -0.11607475 13 1
-0.50206786 -0.16381027 -0.10265525 8 2
-0.47379103 -0.15421836 -0.061178416 10 4
-0.46522027 -0.15106948 0.11292543 13 14
-0.49451327 -0.15972352 -0.13924466 10 0
-0.4747825 -0.15316767 -0.11517494 14 1
-0.51011074 -0.16446646 -0.10418171 8 2
-0.47203144 -0.15173461 0.07853011 15 12
-0.46574473 -0.14944474 0.11292543 13 14
-0.49138701 -0.15682153 -0.13820937 10 0
-0.47902769 -0.15269309 -0.11607475 13 1
-0.51068175 -0.16268471 -0.10418171 8 2
-0.48456165 -0.15278175 -0.13613883 10 0
-0.47871932 -0.15084782 0.0087611079 10 8
-0.47584024 -0.14984933 -0.11517494 13 1
-0.49813762 -0.15677555 -0.10151039 6 2
-0.48509201 -0.15108937 -0.13613883 10 0
-0.48752517 -0.15166056 -0.11787436 13 1
-0.50618082 -0.15736711 -0.10303687 6 2
-0.48561648 -0.14939515 -0.13613883 10 0
-0.48805159 -0.14995784 -0.11787436 13 1
-0.50672704 -0.15559924 -0.10303687 6 2
-0.47977057 -0.14686379 0.07946872 12 12
-0.48613498 -0.14769922 -0.13613883 10 0
-0.47738338 -0.14485817 -0.11517494 13 1
-0.52041841 -0.15781777 -0.10570819 8 2
-0.49034834 -0.14711154 -0.1371741 10 0
-0.47415259 -0.14207232 -0.11427514 13 1
-0.507801 -0.15205784 -0.10303687 6 2
-0.4982681 -0.14759371 -0.13924466 10 0
-0.48956984 -0.14492437 -0.11787436 14 1
-0.506446 -0.14972773 -0.10265525 8 2
-0.48021367 -0.14051524 -0.13406827 10 0
-0.48633173 -0.1421213 -0.11697455 13 1
-0.50317067 -0.14694673 -0.10189201 8 2
-0.48072544 -0.13875434 -0.13406827 10 0
-0.47933525 -0.13826235 -0.11517494 13 1
-0.50181931 -0.14455819 -0.10151039 6 2
-0.47020912 -0.1347415 0.11292543 13 14
-0.48306483 -0.13760468 -0.13458592 9 0
-0.47983876 -0.13650467 -0.11517494 13 1
-0.50609767 -0.14387934 -0.10227363 6 2
-0.482741 -0.13678406 0.07946872 12 12
-0.49656066 -0.13957682 -0.13820937 10 0
-0.47655988 -0.13377552 -0.11427514 13 1
-0.51604825 -0.14476304 -0.10418171 8 2
-0.49332166 -0.13681024 -0.1371741 10 0
-0.47702393 -0.1321113 -0.11427514 13 1
-0.50898194 -0.14086626 -0.10265525 8 2
-0.48261589 -0.13202877 -0.13406827 10 0
-0.48500162 -0.13249952 -0.11607475 13 1
-0.50947058 -0.13908872 -0.10265525 8 2
-0.48680413 -0.13134983 -0.13510354 10 0
-0.48169789 -0.12979171 -0.11517494 13 1
-0.50805724 -0.13679904 -0.10227363 6 2
-0.4872596 -0.12964986 -0.13510354 10 0
-0.47835904 -0.12719208 -0.11427514 12 1
-0.50853163 -0.13502486 -0.10227363 6 2
-0.4793036 -0.12690602 0.07853011 15 12
-0.48768687 -0.12803333 -0.13510354 10 0
-0.47880012 -0.12552151 -0.11427514 13 1
-0.50327909 -0.13184515 -0.10112877 8 2
-0.4778105 -0.12481659 0.078217238 12 12
-0.48252016 -0.12487812 -0.13355063 9 0
-0.47921371 -0.12393305 -0.11427514 13 1
-0.49803364 -0.12861489 -0.099983923 6 2
-0.47172168 -0.12032796 -0.13044479 9 0
-0.49099547 -0.12506199 -0.11697455 13 1
-0.50228471 -0.12784401 -0.10074715 6 2
-0.47213879 -0.11868072 -0.13044479 9 0
-0.48386854 -0.12144953 -0.11517494 13 1
-0.50653642 -0.12704526 -0.10151039 6 2
-0.4763006 -0.11796074 -0.13148008 9 0
-0.480506 -0.11882425 -0.11427514 13 1
-0.50507092 -0.12480537 -0.10112877 8 2
-0.4814454 -0.11852173 0.07853011 15 12
-0.48046312 -0.11721314 -0.13251536 9 0
-0.4771311 -0.11622382 -0.11337533 13 1
-0.51504129 -0.12536311 -0.10303687 6 2
-0.47993639 -0.11637492 0.078217238 12 12
-0.49777484 -0.11959718 -0.1371741 10 0
-0.47753385 -0.1145576 -0.11337533 13 1
-0.51165736 -0.12264933 -0.10227363 6 2
-0.47562981 -0.11252177 -0.13096245 10 0
-0.4931033 -0.11647393 -0.11697455 13 1
-0.4967964 -0.11725461 -0.099220686 6 2
-0.47790116 -0.11129899 -0.13148008 9 0
-0.48971066 -0.11386912 -0.11607475 13 1
-0.50867659 -0.11818556 -0.10151039 6 2
-0.48927727 -0.11331854 -0.061665896 10 4
-0.47828674 -0.10963023 -0.13148008 9 0
-0.47868815 -0.1096343 -0.11337533 13 1
-0.50908595 -0.11640934 -0.10151039 6 2
-0.49560767 -0.11187187 -0.13613883 10 0
-0.47906798 -0.10796258 -0.11337533 13 1
-0.51713043 -0.11644561 -0.10303687 6 2
-0.49599513 -0.11014118 -0.13613883 10 0
-0.50603294 -0.11209221 -0.10074715 6 2
-0.48882711 -0.10676033 -0.13406827 10 0
-0.48361802 -0.10544582 -0.11427514 13 1
-0.49874815 -0.10865355 -0.099220686 6 2
-0.47597525 -0.10221418 -0.13044479 9 0
-0.48396501 -0.10384149 -0.11427514 13 1
-0.5202412 -0.11143498 -0.10341848 8 2
-0.47631156 -0.10063521 -0.13044479 9 0
-0.51484466 -0.10849492 -0.10227363 6 2
-0.48046041 -0.099673465 -0.13148008 9 0
-0.51523882 -0.10660706 -0.10227363 6 2
-0.49027005 -0.099924892 -0.13406827 10 0
-0.48122391 -0.09790609 -0.11337533 12 1
-0.50406444 -0.10246143 -0.099983923 6 2
-0.48918951 -0.097838469 -0.11517494 13 1
-0.51212001 -0.10223883 -0.10151039 6 2
-0.47577474 -0.093602076 -0.12992717 10 0
-0.51245618 -0.10053999 -0.10151039 6 2
-0.4779954 -0.092307031 -0.13044479 9 0
-0.47837949 -0.09220802 -0.11247552 12 1
-0.51280403 -0.098750554 -0.10151039 6 2
-0.48970312 -0.09279611 -0.13355063 9 0
-0.51700389 -0.097688824 -0.10227363 6 2
-0.47864369 -0.088884212 -0.13044479 9 0
-0.48284367 -0.089576982 -0.11337533 12 1
-0.50577581 -0.093648747 -0.099983923 6 2
-0.51382631 -0.093285456 -0.10151039 6 2
-0.48730937 -0.086803026 -0.11427514 12 1
-0.51414883 -0.091491282 -0.10151039 6 2
-0.47574225 -0.083201431 -0.12940952 9 0
-0.50672877 -0.088347197 -0.099983923 6 2
-0.47983801 -0.082192585 -0.13044479 9 0
-0.50703406 -0.086577825 -0.099983923 6 2
-0.48009387 -0.080684818 -0.13044479 9 0
-0.48047549 -0.080576509 -0.11247552 13 1
-0.50731838 -0.084895954 -0.099983923 6 2
-0.48419896 -0.079551019 -0.13148008 9 0
-0.48461372 -0.07944534 -0.11337533 12 1
-0.51537609 -0.084303796 -0.10151039 6 2
-0.48490164 -0.077668712 -0.11337533 13 1
-0.50791293 -0.08126349 -0.099983923 6 2
-0.47712186 -0.074885957 -0.12940952 9 0
-0.50819349 -0.079490155 -0.099983923 6 2
-0.49186847 -0.076584913 0.078842975 12 12
-0.49455279 -0.075942375 -0.13406827 10 0
-0.48156655 -0.073776074 -0.11247552 12 1
-0.52009821 -0.079586238 -0.10227363 6 2
-0.48144153 -0.072209649 -0.13044479 9 0
-0.48180854 -0.072178721 -0.11247552 12 1
-0.500956 -0.074868388 -0.098457448 6 2
-0.48205757 -0.070496552 -0.11247552 12 1
-0.50508678 -0.073774226 -0.099220686 6 2
-0.48615912 -0.069363929 -0.11337533 13 1
-0.50146645 -0.07136935 -0.098457448 6 2
-0.48217127 -0.067164212 -0.13044479 9 0
-0.52504796 -0.072856523 -0.10303687 6 2
-0.47856283 -0.065044522 -0.12940952 9 0
-0.51361364 -0.069534644 -0.10074715 6 2
-0.47877589 -0.063457176 -0.12940952 9 0
-0.48684758 -0.064354099 -0.11337533 12 1
-0.4865922 -0.064233936 -0.095404498 7 2
-0.48706928 -0.062654279 -0.11337533 12 1
-0.50239158 -0.064536139 -0.098457448 6 2
-0.49115238 -0.06143745 -0.11427514 12 1
-0.50651002 -0.063268855 -0.099220686 6 2
-0.47941417 -0.058440022 -0.12940952 9 0
-0.50672776 -0.061500289 -0.099220686 6 2
-0.47961524 -0.056766182 -0.12940952 9 0
-0.50693935 -0.059731089 -0.099220686 6 2
-0.48789659 -0.055847567 -0.11337533 11 1
-0.49935246 -0.05698242 -0.097694211 6 2
-0.49564558 -0.05480732 -0.096930973 6 2
-0.49215901 -0.052770462 -0.11427514 12 1
-0.50364232 -0.053912707 -0.098457448 6 2
-0.51554435 -0.053367332 -0.10074715 6 2
-0.5118205 -0.051176749 -0.099983923 6 2
-0.48070699 -0.046625573 -0.12940952 9 0
-0.48880523 -0.047238834 -0.11337533 12 1
-0.50808764 -0.049012814 -0.099220686 6 2
-0.48507854 -0.045255572 -0.11247552 12 1
-0.50825566 -0.047238946 -0.099220686 6 2
-0.50449866 -0.045202941 -0.098457448 6 2
-0.50856543 -0.043778256 -0.099220686 6 2
-0.4851476 -0.040397987 -0.13044479 9 0
-0.5047946 -0.041767873 -0.098457448 6 2
-0.48144084 -0.038313046 -0.12940952 9 0
-0.50494432 -0.039917421 -0.098457448 6 2
-0.50116521 -0.037858807 -0.097694211 6 2
-0.50912708 -0.036673374 -0.099220686 5 2
-0.51708657 -0.035432808 -0.10074715 6 2
-0.48192886 -0.031587295 -0.12940952 9 0
-0.51720715 -0.033627607 -0.10074715 6 2
-0.4858872 -0.030228881 -0.13044479 9 0
-0.50555867 -0.031187007 -0.098457448 6 2
-0.48635748 -0.028383868 -0.11247552 12 1
-0.50174457 -0.029193996 -0.097694211 6 2
-0.52144665 -0.02851448 -0.10151039 6 2
-0.50977892 -0.026091982 -0.099220686 6 2
-0.48240265 -0.023255903 -0.12940952 9 0
-0.49810067 -0.023751291 -0.096930973 6 2
-0.49818054 -0.022012318 -0.096930973 6 2
-0.50610089 -0.020592581 -0.098457448 6 2
-0.48684525 -0.018192176 -0.11247552 12 1
-0.50616968 -0.01882582 -0.098457448 6 2
-0.51015663 -0.017191069 -0.099220686 6 2
-0.48273247 -0.014917455 -0.12940952 9 0
-0.50236142 -0.015260763 -0.097694211 6 2
-0.5024116 -0.013507208 -0.097694211 6 2
-0.48704979 -0.011478043 -0.11247552 12 1
-0.51030868 -0.011847833 -0.099220686 6 2
-0.49856964 -0.0098342523 -0.096930973 6 2
-0.51037896 -0.0082850391 -0.099220686 5 2
-0.50647742 -0.0065417853 -0.098457448 6 2
-0.49864447 -0.004699782 -0.096930973 6 2
-0.50258434 -0.0029825659 -0.097694211 6 2
-0.48718333 -0.0012755588 -0.11247552 12 1
-0.50259167 -0.0012280673 -0.097694211 6 2
-0.51437253 0.00044889271 -0.099983923 5 2
-0.48295933 0.0018544854 -0.12940952 9 0
-0.51436782 0.0022443994 -0.099983923 6 2
-0.50257766 0.0039472426 -0.097694211 6 2
-0.49470729 0.0056988061 -0.096167736 6 2
-0.50646263 0.0076024379 -0.098457448 6 2
-0.48288485 0.0086816829 -0.12940952 9 0
-0.51821047 0.0095882025 -0.10074715 6 2
-0.48285344 0.010282958 -0.12940952 9 0
-0.51032472 0.011135307 -0.099220686 6 2
-0.50635523 0.01290551 -0.098457448 6 2
-0.49477479 0.014252323 -0.11427514 12 1
-0.50630713 0.014672955 -0.098457448 6 2
-0.49082932 0.015767854 -0.11337533 12 1
-0.49448222 0.015971592 -0.096167736 6 2
-0.50227463 0.01789083 -0.097694211 6 2
-0.51005262 0.020040076 -0.099220686 6 2
-0.50213373 0.021484567 -0.097694211 6 2
-0.49028873 0.022692597 -0.095404498 7 2
-0.48659086 0.024053644 -0.11247552 12 1
-0.50589758 0.025096539 -0.098457448 6 2
-0.50972313 0.027159506 -0.099220686 6 2
-0.48220041 0.027128054 -0.12940952 9 0
-0.4978646 0.028270803 -0.096930973 6 2
-0.49776289 0.030008517 -0.096930973 6 2
-0.50157923 0.031908296 -0.097694211 6 2
-0.49754709 0.033395872 -0.096930973 6 2
-0.51701128 0.036515616 -0.10074715 5 2
-0.51296496 0.038029812 -0.099983923 6 2
-0.49325538 0.038300317 -0.096167736 6 2
-0.49311864 0.040021881 -0.096167736 6 2
-0.50863355 0.042979367 -0.099220686 5 2
-0.50847262 0.044843201 -0.099220686 6 2
-0.51222306 0.046976443 -0.099983923 6 2
-0.48860297 0.046530802 -0.095404498 7 2
-0.48484328 0.047710121 -0.11247552 12 1
-0.49626115 0.048921127 -0.096930973 6 2
-0.50389975 0.051450927 -0.098457448 6 2
-0.5115267 0.054034401 -0.099983923 6 2
-0.49358189 0.053620152 -0.13303299 10 0
-0.49572164 0.054115225 -0.096930973 6 2
-0.49552971 0.055845182 -0.096930973 6 2
-0.50313234 0.058481269 -0.098457448 6 2
-0.49902645 0.059770346 -0.097694211 6 2
-0.50660872 0.062473051 -0.099220686 6 2
-0.51028293 0.064735122 -0.099983923 6 2
-0.49447963 0.064484932 -0.096930973 6 2
-0.48288286 0.064601868 -0.11247552 12 1
-0.50592679 0.067774639 -0.099220686 5 2
-0.49401736 0.067935474 -0.096930973 5 2
-0.50544131 0.071305029 -0.099220686 6 2
-0.51296139 0.07419306 -0.10074715 6 2
-0.49717584 0.073593907 -0.097694211 6 2
-0.49303374 0.074740313 -0.096930973 6 2
-0.50053006 0.077664994 -0.098457448 6 2
-0.50801182 0.080642894 -0.099983923 6 2
-0.47676367 0.077133447 -0.12940952 9 0
-0.49997565 0.081157453 -0.098457448 6 2
-0.50356287 0.083544873 -0.099220686 6 2
-0.49552557 0.083989792 -0.097694211 6 2
-0.51070529 0.088397592 -0.10074715 6 2
-0.49492717 0.087447047 -0.097694211 6 2
-0.49848309 0.089870945 -0.098457448 6 2
-0.48659667 0.08939492 -0.096167736 6 2
-0.47888702 0.089534722 -0.11247552 12 1
-0.48821133 0.091454528 -0.096549362 8 2
-0.50524491 0.09647198 -0.099983923 6 2
-0.50103384 0.097572468 -0.099220686 6 2
-0.50069016 0.099320948 -0.099220686 6 2
-0.47346792 0.095295802 -0.12940952 9 0
-0.49266025 0.099427097 -0.097694211 6 2
-0.4772515 0.097878881 -0.11247552 12 1
-0.50002044 0.10263936 -0.099220686 5 2
-0.47690696 0.099544108 -0.11247552 13 1
-0.49581558 0.10358131 -0.098457448 6 2
-0.51081377 0.10857688 -0.10151039 6 2
-0.47209123 0.1018972 -0.12940952 9 0
-0.4988994 0.10795695 -0.099220686 6 2
-0.47550654 0.10437287 -0.13044479 9 0
-0.49468476 0.10885397 -0.098457448 6 2
-0.47545207 0.10627609 -0.11247552 12 1
-0.49430177 0.11058009 -0.098457448 6 2
-0.47507817 0.1079351 -0.11247552 12 1
-0.49391276 0.11230486 -0.098457448 6 2
-0.50116915 0.11579615 -0.099983923 6 2
-0.50078237 0.11745746 -0.099983923 6 2
-0.49654979 0.11829474 -0.099220686 6 2
-0.47354487 0.114475 -0.11247552 12 1
-0.47705168 0.11541087 -0.095404498 7 2
-0.47314236 0.1161273 -0.11247552 12 1
-0.48427221 0.11894872 -0.096930973 6 2
-0.50290346 0.12538786 -0.10074715 6 2
-0.47388738 0.11964794 -0.13096245 10 0
-0.49865621 0.12617938 -0.099983923 6 2
-0.46787348 0.11978137 -0.12940952 9 0
-0.47569689 0.12196109 -0.11337533 12 1
-0.49443173 0.12685649 -0.099220686 5 2
-0.47526824 0.12362096 -0.11337533 12 1
-0.49398592 0.12858161 -0.099220686 6 2
-0.48237088 0.12726779 -0.11517494 12 1
-0.48971507 0.12938832 -0.098457448 6 2
-0.46657172 0.12475576 -0.12940952 9 0
-0.47060663 0.12601054 -0.11247552 12 1
-0.49303013 0.13219914 -0.099220686 6 2
-0.47356915 0.12848832 -0.13148008 9 0
-0.50014353 0.13597962 -0.10074715 6 2
-0.49211884 0.13555203 -0.099220686 6 2
-0.46526238 0.12955348 -0.12940952 9 0
-0.46928409 0.13084999 -0.11247552 12 1
-0.49164268 0.13726903 -0.099220686 6 2
-0.46880138 0.132569 -0.11247552 13 1
-0.49113625 0.13907009 -0.099220686 6 2
-0.46831229 0.13428636 -0.11247552 13 1
-0.4868736 0.13970068 -0.098457448 6 2
-0.47127843 0.13665149 -0.13148008 9 0
-0.50526065 0.14679177 -0.10227363 6 2
-0.46340814 0.13603698 -0.12940952 9 0
-0.47115073 0.1384884 -0.11337533 12 1
-0.4897033 0.14403465 -0.099220686 6 2
-0.46293047 0.13765375 -0.12940952 9 0
-0.47066441 0.14013229 -0.11337533 12 1
-0.4929606 0.14686427 -0.099983923 6 2
-0.46244717 0.13926876 -0.12940952 9 0
-0.47017238 0.14177439 -0.11337533 12 1
-0.49996319 0.15085247 -0.10151039 6 2
-0.46562907 0.14209059 -0.13044479 9 0
-0.49189705 0.15038806 -0.099983923 6 2
-0.48174202 0.14884765 -0.13510354 10 0
-0.49511999 0.15326516 -0.10074715 6 2
-0.47165662 0.14636293 0.078217238 12 12
-0.48524141 0.15197238 -0.098839059 8 2
-0.48303565 0.15294959 -0.11697455 12 1
-0.48286328 0.15298773 -0.098457448 6 2
-0.47136423 0.15106617 -0.11427514 12 1
-0.49728212 0.15946835 -0.10151039 6 2
-0.46313074 0.15003361 -0.13044479 9 0
-0.49298766 0.15999117 -0.10074715 6 2
-0.47175586 0.15474048 -0.13303299 10 0
-0.46289179 0.15192255 -0.11247552 12 1
-0.48866773 0.16057128 -0.099983923 6 2
-0.47280985 0.15572633 0.078842975 12 12
-0.46204528 0.15334386 -0.13044479 9 0
-0.46603051 0.15484698 -0.11337533 13 1
-0.48437828 0.16103733 -0.099220686 6 2
-0.47066408 0.15803018 -0.13303299 10 0
-0.47287583 0.1589566 -0.11517494 13 1
-0.48753485 0.1639788 -0.099983923 6 2
-0.46862814 0.15935145 -0.11427514 13 1
-0.49067667 0.16694434 -0.10074715 6 2
-0.46041417 0.15817381 -0.13044479 9 0
-0.46069786 0.15845108 -0.11247552 12 1
-0.49380377 0.16993383 -0.10151039 6 2
-0.47056115 0.16239466 0.078842975 12 12
-0.4671869 0.16223468 -0.13251536 9 0
-0.46385121 0.16125777 -0.11337533 13 1
-0.50065464 0.17415041 -0.10303687 6 2
-0.45932689 0.161304 -0.13044479 9 0
-0.46696237 0.16416863 -0.11427514 13 1
-0.48522764 0.17068513 -0.099983923 6 2
-0.46422249 0.16484585 -0.13199772 10 0
-0.47005886 0.16710304 -0.11517494 13 1
-0.48832825 0.17369382 -0.10074715 6 2
-0.46216616 0.16602556 -0.11337533 13 1
-0.49510866 0.1780549 -0.10227363 6 2
-0.47398582 0.17195487 -0.13510354 10 0
-0.45792043 0.16630737 -0.11247552 13 1
-0.50558674 0.18371882 -0.10456334 6 2
-0.46975529 0.17227793 -0.13406827 10 0
-0.46099582 0.16924804 -0.11337533 13 1
-0.49757093 0.18277475 -0.10303687 6 2
-0.46009406 0.17055917 -0.13148008 9 0
-0.46405616 0.17221232 -0.11427514 12 1
-0.48220611 0.17904343 -0.099983923 6 2
-0.45587784 0.17080855 -0.13044479 9 0
-0.46710148 0.17519978 -0.11517494 13 1
-0.48157817 0.18072556 -0.099983923 6 2
-0.46431214 0.17581932 -0.13303299 10 0
-0.46284261 0.17544773 -0.11427514 13 1
-0.49012268 0.1858865 -0.10189201 8 2
-0.461597 0.17552859 0.078217238 12 12
-0.45464388 0.17406636 -0.13044479 9 0
-0.46222737 0.17706229 -0.11427514 13 1
-0.4912712 0.18838458 -0.10227363 6 2
-0.47385246 0.18331969 -0.13613883 10 0
-0.45794085 0.17734775 -0.11337533 13 1
-0.49610254 0.19222626 -0.10341848 8 2
-0.46404323 0.18017684 0.078842975 12 12
-0.46961111 0.18356587 -0.13510354 10 0
-0.45735019 0.17886536 -0.11337533 13 1
-0.47897524 0.18751536 -0.099983923 6 2
-0.45821825 0.18086652 -0.13199772 10 0
-0.46397266 0.1833252 -0.11517494 13 1
-0.47835076 0.18910269 -0.099983923 6 2
-0.4557896 0.18174933 -0.13148008 9 0
-0.45609039 0.1820538 -0.11337533 13 1
-0.47404128 0.18931504 -0.099220686 6 2
-0.46769592 0.18839201 -0.13510354 10 0
-0.45183742 0.18218726 -0.11247552 13 1
-0.4952257 0.19978265 -0.1038001 6 2
-0.45781979 0.18515702 0.078217238 12 12
-0.46345669 0.18856721 -0.13406827 10 0
-0.45841789 0.18670361 -0.11427514 13 1
-0.48725289 0.1985466 -0.10227363 6 2
-0.46636933 0.19165243 -0.13510354 10 0
-0.4577634 0.18830264 -0.11427514 13 1
-0.4829258 0.19875185 -0.10151039 6 2
-0.456516 0.1883487 0.078217238 12 12
-0.45856038 0.19031708 -0.13303299 10 0
-0.46790105 0.19438525 -0.11697455 13 1
-0.48222908 0.2004364 -0.10151039 6 2
-0.44898489 0.18818273 -0.13044479 9 0
-0.46003163 0.19300167 -0.11517494 13 1
-0.48514706 0.20363805 -0.10227363 6 2
-0.46433681 0.19652569 -0.13510354 10 0
-0.45935518 0.19460621 -0.11517494 13 1
-0.49527878 0.20992738 -0.10456334 6 2
-0.45451865 0.19311883 0.078217238 12 12
-0.47075376 0.20118207 -0.1371741 10 0
-0.45867306 0.19620849 -0.11517494 14 1
-0.48551843 0.20779262 -0.10265525 8 2
-0.45747244 0.19626199 0.078842975 12 12
-0.47004867 0.20282397 -0.1371741 10 0
-0.4544073 0.1962631 -0.11427514 13 1
-0.48479021 0.20948604 -0.10265525 8 2
-0.45871127 0.19983417 -0.13406827 10 0
-0.46086472 0.20096372 -0.11607475 13 1
-0.47865757 0.20882188 -0.10151039 6 2
-0.45609117 0.19945095 0.078842975 12 12
-0.45801088 0.20143417 -0.13406827 10 0
-0.46372756 0.20414156 -0.11697455 13 1
-0.48690933 0.21444805 -0.10341848 8 2
-0.45177796 0.19944613 0.078217238 12 12
-0.44736531 0.19777803 0.11292543 13 14
-0.46436763 0.20616734 -0.13613883 10 0
-0.4452039 0.19784521 -0.11247552 13 1
-0.48795167 0.2169441 -0.1038001 6 2
-0.45659345 0.20462675 -0.13406827 11 0
-0.44810176 0.20091504 -0.11337533 13 1
-0.49614719 0.22266515 -0.10570819 8 2
-0.45401317 0.2041368 0.078842975 12 12
-0.45943293 0.20773159 -0.13510354 10 0
-0.4609544 0.20851642 0.008830918 10 8
-0.45805013 0.20729883 -0.11607475 13 1
-0.47752139 0.21621144 -0.10189201 8 2
-0.45870501 0.20933405 -0.13510354 10 0
-0.45377851 0.20727719 -0.11517494 13 1
-0.48390627 0.22114106 -0.10341848 8 2
-0.45446217 0.20931751 -0.13406827 10 0
-0.46367064 0.2137551 -0.11787436 14 1
-0.4866969 0.22447334 -0.10418171 8 2
-0.44830069 0.20714384 0.078217238 12 12
-0.44388133 0.2054781 0.11292543 13 14
-0.46073619 0.21415983 -0.13613883 10 0
-0.45589116 0.21200465 -0.11607475 13 1
-0.48591042 0.22617078 -0.10418171 8 2
-0.47051832 0.22060713 -0.13924466 10 0
-0.46165651 0.21655048 0.0089007281 10 8
-0.45514834 0.21359472 -0.11607475 14 1
-0.47804922 0.22444345 -0.10265525 8 2
-0.4662528 0.22059579 -0.13820937 10 0
-0.46812749 0.22158287 0.0090403464 10 8
-0.45440003 0.2151821 -0.11607475 13 1
-0.47371441 0.22442968 -0.10189201 8 2
-0.45501974 0.21722811 -0.13510354 10 0
-0.45291564 0.2163208 0.0087611079 10 8
-0.46771264 0.22348838 -0.11967396 14 1
-0.48001319 0.2294689 -0.10341848 8 2
-0.44452012 0.2132645 0.11382524 13 14
-0.45425865 0.21881522 -0.13510354 11 0
-0.4634189 0.22342703 -0.11877415 14 1
-0.47213605 0.22773136 -0.10189201 8 2
-0.44684169 0.21591544 -0.060934674 11 4
-0.45173109 0.21837528 0.07946872 12 12
-0.44377291 0.21481498 0.11382524 13 14
-0.4639172 0.22546624 -0.13820937 10 0
-0.44511208 0.21651894 -0.11427514 13 1
-0.48899135 0.23796898 -0.10570819 8 2
-0.44608527 0.21747389 -0.060934674 11 4
-0.4598434 0.22428055 0.081033058 15 12
-0.4430204 0.21636263 0.11382524 13 14
-0.46308777 0.22716495 -0.13820937 11 0
-0.45135128 0.22150558 -0.11607475 13 1
-0.4845916 0.23802839 -0.10494495 8 2
-0.45061344 0.22143629 0.043926492 13 10
-0.45019555 0.22152363 0.07946872 12 12
-0.43872854 0.21626173 0.11292543 13 14
-0.46575484 0.2304939 -0.13924466 11 0
-0.45339647 0.22447649 0.008830918 10 8
-0.45752156 0.2266181 -0.11787436 13 1
-0.47672129 0.23623182 -0.10341848 8 2
-0.44626758 0.22123797 0.043577868 14 10
-0.45803365 0.22866671 -0.1371741 11 0
-0.45801696 0.22865838 0.0089356322 10 8
-0.45676753 0.22813407 -0.11787436 14 1
-0.47764984 0.2387723 -0.1038001 9 2
-0.45040444 0.22554559 0.079781592 15 12
-0.43724641 0.21924296 0.11292543 13 14
-0.45727286 0.23018438 -0.1371741 11 0
-0.45596841 0.2297271 -0.11787436 14 1
-0.48562109 0.24477322 -0.10570819 8 2
-0.44608799 0.22533512 0.079155855 15 12
-0.44343421 0.22428623 0.11472505 13 14
-0.45642614 0.23185872 -0.1371741 11 0
-0.44571239 0.22641626 0.0087262029 11 8
-0.45516366 0.23131746 -0.11787436 14 1
-0.4864707 0.24744147 -0.10608982 9 2
-0.4439263 0.22589909 0.043577868 14 10
-0.45761913 0.23316862 0.081345931 17 12
-0.43913773 0.22413816 0.11382524 13 14
-0.46592984 0.23873623 -0.14027993 11 0
-0.44487953 0.22804835 0.0087262029 11 8
-0.45084476 0.23120554 -0.11697455 14 1
-0.48909751 0.2509304 -0.10685304 9 2
-0.45328864 0.23295861 0.080720194 17 12
-0.45479637 0.2350395 -0.1371741 11 0
-0.44767383 0.23135857 0.008796013 10 8
-0.4500756 0.23269935 -0.11697455 14 1
-0.44349968 0.22939757 0.026167979 14 9
-0.47775683 0.24722254 -0.10456334 9 2
-0.45118532 0.23357256 0.04444943 14 10
-0.43856144 0.22703734 -0.078217238 12 3
-0.44019631 0.22817601 0.07853011 15 12
-0.45058796 0.23476104 -0.13613883 11 0
-0.44926056 0.23426901 -0.11697455 14 1
-0.4426963 0.23094417 0.026167979 14 9
-0.47345313 0.24698929 -0.1038001 9 2
-0.44687563 0.2332238 0.044100806 14 10
-0.4428983 0.23154157 0.079155855 15 12
-0.43335345 0.22684063 0.11292543 14 14
-0.44972444 0.23641106 -0.13613883 11 0
-0.45878872 0.24127804 -0.11967396 14 1
-0.44542253 0.23434812 0.026377324 13 9
-0.47949383 0.25238073 -0.10532658 9 2
-0.44249201 0.23300341 0.043752182 14 10
-0.4425464 0.2332295 -0.061422151 10 4
-0.45082435 0.23769252 0.080720194 17 12
-0.44630459 0.23570798 0.11652464 14 14
-0.44548282 0.23616961 -0.13510354 12 0
-0.44068688 0.23382431 -0.11517494 15 1
-0.44813037 0.23777375 0.026586669 13 9
-0.48207819 0.25589383 -0.10608982 9 2
-0.43786395 0.23262036 -0.07853011 11 3
-0.44698834 0.23756771 -0.062153373 10 4
-0.44650349 0.23741008 0.080094457 17 12
-0.43863988 0.23352359 0.11472505 16 14
-0.42623293 0.22710936 0.12940952 15 15
-0.45492014 0.24310873 -0.13820937 11 0
-0.44087297 0.23570086 0.0087262029 11 8
-0.4433459 0.23712258 -0.11607475 15 1
-0.48295793 0.25841725 -0.10647143 11 2
-0.44440889 0.23789053 0.044100806 16 10
-0.44057292 0.23593621 -0.079155855 11 3
-0.45267802 0.24262209 0.081345931 17 12
-0.45411143 0.24461597 -0.13820937 12 0
-0.45065108 0.24285346 0.0089356322 11 8
-0.45284915 0.24414012 -0.11877415 15 1
-0.44302744 0.23884505 0.026377324 16 9
-0.48209834 0.2600174 -0.10647143 11 2
-0.44537097 0.24030903 0.044275116 17 10
-0.4397881 0.23739591 -0.079155855 11 3
-0.43841612 0.23675415 -0.061178416 10 4
-0.44665709 0.24130502 0.080407321 22 12
-0.44820449 0.24335513 -0.13665645 13 0
-0.44281441 0.24052863 0.008796013 11 8
-0.4486126 0.2437795 -0.11787436 15 1
-0.44925258 0.24412727 0.026796013 17 9
-0.4760589 0.25880164 -0.10532658 12 2
-0.44246885 0.2407411 -0.079781592 12 3
-0.44111571 0.24010476 -0.061665896 10 4
-0.44585446 0.24278489 0.080407321 22 12
-0.44722399 0.24515237 -0.13665645 13 0
-0.44359869 0.24326579 0.008830918 16 8
-0.44763035 0.24557848 -0.11787436 15 1
-0.44472429 0.24408501 0.026586669 17 9
-0.48534259 0.26637819 -0.10761628 12 2
-0.43836653 0.24099393 -0.061422151 12 4
-0.44829527 0.24655434 0.081033058 35 12
-0.43188068 0.23782121 0.11382524 24 14
-0.44636554 0.24671198 -0.13665645 13 0
-0.43483379 0.24053644 -0.11472505 16 1
-0.49471641 0.27377439 -0.10990599 12 2
-0.43405017 0.24059799 -0.060934674 16 4
-0.45261458 0.25099152 0.081971675 42 12
-0.44550166 0.2482685 -0.13665645 14 0
-0.42718381 0.23825593 -0.11292543 18 1
-0.47832778 0.26689023 -0.10647143 16 2
-0.44710535 0.24957153 0.04479805 35 10
-0.45522842 0.25441849 0.082597405 50 12
-0.42855132 0.2398037 0.11337533 39 14
-0.44636035 0.25069052 -0.1371741 17 0
-0.44337904 0.24921988 -0.11742445 24 1
-0.47401756 0.26655042 -0.10570819 19 2
-0.44577652 0.25107962 0.081033058 67 12
-0.42435887 0.23930904 0.11247552 52 14
-0.43712038 0.24741153 -0.13458592 25 0
-0.4374634 0.24780735 -0.11607475 33 1
-0.45942125 0.2604574 -0.10265525 20 2
-0.43459088 0.24678163 0.079155855 60 12
-0.42111099 0.24039234 -0.12992717 22 0
-0.45178086 0.2581093 -0.12012386 36 1
-0.46698511 0.26701212 -0.10456334 35 2
-0.44054016 0.25229955 0.080407321 82 12
-0.43615991 0.25009447 0.11607475 53 14
-0.43696925 0.25157288 -0.13510354 26 0
-0.43394661 0.25003454 -0.11562484 39 1
-0.45584479 0.26275784 -0.10227363 30 2
-0.45334253 0.26173741 0.082910277 95 12
-0.4251613 0.2457639 0.11337533 56 14
-0.43947464 0.25495943 -0.13613883 27 0
-0.42637399 0.24755824 -0.11382524 47 1
-0.46176156 0.26821235 -0.1038001 35 2
-0.44564229 0.2592659 0.081658795 100 12
-0.43695894 0.25544044 -0.13562119 34 0
-0.43059674 0.25192302 -0.11517494 56 1
-0.46086958 0.26974216 -0.1038001 38 2
-0.43110287 0.25282547 0.079155855 95 12
-0.41775656 0.2461756 -0.12992717 36 0
-0.43307197 0.25540435 -0.11607475 61 1
-0.45316154 0.26735881 -0.10227363 41 2
-0.4168947 0.24763235 -0.12992717 38 0
-0.42547733 0.25293133 -0.11427514 61 1
-0.45222554 0.26893902 -0.10227363 41 2
-0.41602781 0.24908598 -0.12992717 36 0
-0.41790533 0.25040844 -0.11247552 52 1
-0.45801958 0.27455351 -0.1038001 39 2
-0.43351197 0.26037723 0.080094457 40 12
-0.42252168 0.25407732 0.11382524 19 14
-0.42507973 0.25652567 -0.13303299 32 0
-0.45705843 0.27615064 -0.1038001 35 2
-0.4342902 0.26291201 0.080407321 27 12
-0.41954142 0.25448376 0.13148008 7 15
-0.42083612 0.2560735 -0.13199772 21 0
-0.42280534 0.25737298 -0.11427514 25 1
-0.45269001 0.27578107 -0.10303687 27 2
-0.43336987 0.26442626 0.080407321 20 12
-0.41205758 0.25191611 0.12940952 8 15
-0.41499916 0.254511 -0.13044479 16 0
-0.43123177 0.26456988 0.008830918 7 8
-0.42850274 0.26299834 -0.11607475 20 1
-0.4550707 0.27941409 -0.1038001 22 2
-0.42739621 0.26283306 0.07946872 12 12
-0.41743979 0.25791663 -0.13148008 12 0
-0.43094316 0.26646766 -0.11697455 15 1
-0.42808264 0.26469889 0.026377324 7 9
-0.45915049 0.28402001 -0.10494495 13 2
-0.42866644 0.26547369 -0.061909631 12 4
-0.43491837 0.26945072 0.081033058 10 12
-0.43134302 0.26848733 -0.13613883 9 0
-0.42509493 0.26480415 -0.11562484 10 1
-0.43902153 0.2735858 0.027110027 7 9
-0.47153577 0.29384774 -0.1079979 11 2
-0.42436907 0.26486641 -0.061422151 8 4
-0.44570422 0.27829066 0.083223142 7 12
-0.42871976 0.26903963 -0.13562119 8 0
-0.43572119 0.27353933 -0.11877415 9 1
-0.46546841 0.29244074 -0.10685304 6 2
-0.41965142 0.26406395 0.07853011 5 12
-0.42777801 0.27053452 -0.13562119 6 0
-0.42416322 0.26835206 0.0087611079 4 8
-0.42977574 0.27200797 -0.11742445 6 1
-0.46776223 0.29616424 -0.10761628 5 2
-0.42583981 0.26972508 0.044100806 4 10
-0.42883125 0.27172491 -0.080407321 5 3
-0.42706823 0.27081662 0.080094457 7 12
-0.40927416 0.26003388 0.12992717 6 15
-0.42683104 0.27202609 -0.13562119 4 0
-0.42558509 0.27133632 -0.11652464 6 1
-0.42266124 0.2695761 0.026272653 6 9
-0.46507049 0.29673922 -0.10723466 4 2
-0.41793743 0.26676837 -0.07853011 4 3
-0.41822642 0.26715845 -0.060934674 5 4
-0.41946211 0.26805103 0.078842975 7 12
-0.43242928 0.27761468 -0.13769174 4 0
-0.42064422 0.27015233 0.0087262029 3 8
-0.42299578 0.27176699 -0.11607475 5 1
-0.46408394 0.29827982 -0.10723466 4 2
-0.4282136 0.27702367 -0.13665645 4 0
-0.41969866 0.27161902 0.0087262029 3 8
-0.41222951 0.2668874 -0.11337533 5 1
-0.47292691 0.30630136 -0.10952436 4 2
-0.4160648 0.26967973 -0.07853011 4 3
-0.42586595 0.27634925 0.080407321 5 12
-0.42077067 0.27429682 -0.13458592 4 0
-0.41782397 0.27258375 -0.11517494 5 1
-0.45541394 0.29722035 -0.10570819 4 2
-0.41874379 0.27339241 0.043752182 4 10
-0.4151209 0.27113041 -0.07853011 4 3
-0.42159212 0.27567199 0.079781592 5 12
-0.42626917 0.28000641 -0.13665645 4 0
-0.41361308 0.27189964 -0.11427514 5 1
-0.45109287 0.29665089 -0.10494495 4 2
-0.41417202 0.27257773 -0.07853011 4 3
-0.41240159 0.27296272 -0.13251536 4 0
-0.41591078 0.27549407 -0.11517494 5 1
-0.45169121 0.29930818 -0.10532658 2 2
-0.41636583 0.27642339 0.079155855 5 12
-0.41782653 0.27876097 -0.13458592 4 0
-0.42143008 0.28127158 -0.11697455 5 1
-0.45059124 0.30096161 -0.10532658 2 2
-0.4184542 0.28129539 -0.13510354 4 0
-0.4106949 0.27628773 -0.11427514 5 1
-0.43325025 0.29157141 -0.10151039 2 2
-0.42386773 0.28708789 -0.1371741 4 0
-0.41722956 0.28259182 0.008796013 3 8
-0.40977645 0.27764812 -0.11427514 5 1
-0.44522932 0.30189639 -0.10456334 2 2
-0.41018006 0.27854875 0.07853011 5 12
-0.41812575 0.2852259 -0.13562119 4 0
-0.40236688 0.2746819 -0.11247552 5 1
-0.42639181 0.291192 -0.10036553 4 2
-0.40757492 0.2801185 -0.13251536 4 0
-0.42072362 0.28926346 -0.11787436 5 1
-0.43831187 0.30158144 -0.10341848 4 2
-0.40982068 0.28366753 -0.13355063 4 0
-0.41009966 0.28407225 -0.11517494 5 1
-0.44376409 0.30750605 -0.10494495 4 2
-0.41097355 0.28520873 -0.061422151 5 4
-0.40560949 0.28295699 -0.13251536 4 0
-0.44585326 0.3113786 -0.10570819 4 2
-0.41094151 0.28881443 -0.13458592 4 0
-0.42870721 0.30163583 -0.10189201 4 2
-0.4067775 0.28801447 -0.13355063 4 0
-0.40074143 0.28384566 -0.11337533 5 1
-0.44206688 0.3133485 -0.10532658 2 2
-0.40430674 0.28700724 0.07853011 5 12
-0.39323658 0.28038934 -0.12940952 4 0
-0.39974815 0.2852428 -0.11337533 5 1
-0.41865453 0.29884386 -0.099983923 2 2
-0.3953439 0.28408337 -0.13044479 4 0
-0.39558533 0.28436157 -0.11247552 5 1
-0.42552501 0.30610865 -0.10189201 4 2
-0.39591476 0.28659445 -0.13096245 4 0
-0.43081275 0.31220028 -0.10341848 4 2
-0.39959472 0.29138935 -0.13251536 4 0
-0.42337766 0.30907181 -0.10189201 4 2
-0.3923977 0.28813922 -0.13044479 4 0
-0.39258584 0.28848848 -0.11247552 5 1
-0.41918671 0.30814844 -0.10112877 4 2
-0.39923614 0.2940197 0.07853011 5 12
-0.39138949 0.28950721 -0.13044479 4 0
-0.43073064 0.31895652 -0.10418171 4 2
-0.41387782 0.30871984 -0.10036553 4 2
-0.40192091 0.30034703 0.07946872 7 12
-0.38626865 0.28991324 -0.12940952 4 0
-0.42849344 0.3219558 -0.10418171 4 2
-0.3914184 0.29591998 -0.13148008 4 0
-0.41797432 0.3163408 -0.10189201 4 2
-0.38884613 0.29611409 -0.13096245 4 0
-0.41842884 0.31898817 -0.10227363 2 2
-0.38474447 0.29511797 -0.12992717 4 0
-0.4064129 0.31207681 -0.099602297 4 2
-0.41780108 0.32302967 -0.10265525 4 2
-0.39203939 0.30354932 0.07853011 5 12
-0.38277873 0.29766324 -0.12992717 4 0
-0.41982585 0.32682553 -0.10341848 4 2
-0.38787383 0.30369481 -0.13199772 4 0
-0.40946874 0.32094914 -0.10112877 4 2
-0.38063884 0.3003948 -0.12992717 4 0
-0.39590931 0.31278256 -0.098075822 4 2
-0.40710515 0.32394198 -0.10112877 4 2
-0.40290794 0.32290551 -0.10036553 4 2
-0.39872295 0.32184371 -0.099602297 4 2
-0.38240615 0.31055143 -0.13199772 4 0
-0.4006438 0.32571048 -0.10036553 4 2
-0.38297409 0.31178987 0.078217238 7 12
-0.40254247 0.32959452 -0.10112877 4 2
-0.38199377 0.31477925 -0.11427514 5 1
-0.39235789 0.32343489 -0.098839059 4 2
-0.38814923 0.32236204 -0.098075822 4 2
-0.39304531 0.32875335 -0.099602297 4 2
-0.39489833 0.33265311 -0.10036553 4 2
-0.39079848 0.33142111 -0.099602297 4 2
-0.38958108 0.33285123 -0.099602297 4 2
-0.38692871 0.33292863 -0.099220686 2 2
-0.39615023 0.34327692 -0.10189201 4 2
-0.37424052 0.32658583 -0.096549362 4 2
-0.38489577 0.33825824 -0.099602297 4 2
-0.37342161 0.3304916 -0.096930973 2 2
-0.37373132 0.33309937 -0.097312599 4 2
-0.38425466 0.34489292 -0.10036553 4 2
-0.37139666 0.33570048 -0.097312599 4 2
-0.37318566 0.33957261 -0.098075822 4 2
-0.37772745 0.34624469 -0.099602297 4 2
-0.38228688 0.35288772 -0.10112877 4 2
-0.38099089 0.35428649 -0.10112877 4 2
-0.37414208 0.35011581 -0.099602297 4 2
-0.36999911 0.34879148 -0.098839059 4 2
-0.36166012 0.34332252 -0.096930973 2 2
-0.35904038 0.34322625 -0.096549362 4 2
-0.36349761 0.34992373 -0.098075822 4 2
-0.35663545 0.34572446 -0.096549362 4 2
-0.35542646 0.34696725 -0.096549362 4 2
-0.35981333 0.35371101 -0.098075822 4 2
-0.35020512 0.34667769 -0.095786124 4 2
-0.35733527 0.35621428 -0.098075822 4 2
-0.35331851 0.3546778 -0.097312599 4 2
-0.35214049 0.35584742 -0.097312599 4 2
-0.34407693 0.35001293 -0.095404498 3 2
-0.34964761 0.35829717 -0.097312599 4 2
-0.35659227 0.36797464 -0.099602297 4 2
-0.34441516 0.35790008 -0.096549362 4 2
-0.3431637 0.35910013 -0.096549362 4 2
-0.34190804 0.36029592 -0.096549362 4 2
-0.34609807 0.36714199 -0.098075822 4 2
-0.33938447 0.362674 -0.096549362 4 2
-0.34078929 0.36673284 -0.097312599 4 2
-0.33950707 0.36792019 -0.097312599 4 2
-0.33556798 0.36620811 -0.096549362 4 2
-0.33164501 0.36447307 -0.095786124 4 2
-0.33306751 0.36848378 -0.096549362 4 2
-0.33177921 0.36964417 -0.096549362 4 2
-0.33432913 0.37789041 -0.098075822 4 2
-0.3278251 0.37315539 -0.096549362 4 2
-0.32393935 0.37133855 -0.095786124 4 2
-0.32438105 0.37236947 0.078217238 7 12
-0.32126269 0.37881994 -0.096549362 4 2
-0.32246763 0.38294244 -0.097312599 4 2
-0.32616612 0.39009035 -0.098839059 4 2
-0.31734487 0.38210791 -0.096549362 4 2
-0.31476018 0.38169858 -0.096167736 2 2
-0.31715706 0.38735217 -0.097312599 4 2
-0.32199511 0.39607379 -0.099220686 2 2
-0.32184377 0.39872292 -0.099602297 4 2
-0.31308344 0.39065209 -0.097312599 4 2
-0.31643364 0.40053099 -0.099220686 2 2
-0.30639225 0.39343637 -0.096930973 2 2
-0.30741885 0.3976098 -0.097694211 2 2
-0.30124721 0.39245111 -0.096167736 2 2
-0.30470526 0.3996931 -0.097694211 2 2
-0.29166311 0.38494906 -0.12940952 3 0
-0.30804732 0.40701616 -0.099220686 2 2
-0.30426592 0.4049499 -0.098457448 2 2
-0.30519831 0.40915683 -0.099220686 2 2
-0.30376831 0.41021961 -0.099220686 2 2
-0.29063728 0.39550972 -0.095404498 3 2
-0.30776715 0.42189932 -0.10151039 2 2
-0.28346908 0.39102232 -0.12940952 3 0
-0.30398953 0.41979089 -0.10074715 2 2
-0.28210253 0.39200935 -0.12940952 3 0
-0.29564694 0.41128466 -0.098457448 2 2
-0.29877096 0.4187066 -0.099983923 2 2
-0.30192083 0.42610264 -0.10151039 2 2
-0.3026906 0.43036556 -0.10227363 2 2
-0.27667093 0.39586154 -0.12940952 3 0
-0.2921958 0.41854143 -0.099220686 2 2
-0.28409657 0.4095234 -0.13355063 3 0
-0.2884967 0.41633141 -0.098457448 2 2
-0.28926668 0.42057115 -0.099220686 2 2
-0.27251026 0.39873716 -0.12940952 3 0
-0.29443839 0.43130696 -0.10151039 2 2
-0.27552557 0.4060328 -0.13148008 3 0
-0.28419441 0.41928002 -0.098457448 2 2
-0.27403545 0.40704 -0.13148008 3 0
-0.29142013 0.43335202 -0.10151039 2 2
-0.27261302 0.40799403 -0.13148008 3 0
-0.28336656 0.42456883 -0.099220686 2 2
-0.2743901 0.41377324 -0.13303299 3 0
-0.27671599 0.41743883 -0.11562484 4 1
-0.27104101 0.40918788 -0.095404498 3 2
-0.26876727 0.4082267 -0.13096245 3 0
-0.27097312 0.41189006 -0.11382524 4 1
-0.28909987 0.43961051 -0.10227363 2 2
-0.26945394 0.41239697 -0.13199772 3 0
-0.28541744 0.43732885 -0.10151039 2 2
-0.27537006 0.4246814 -0.13562119 3 0
-0.27748573 0.42843547 -0.099220686 2 2
-0.27388605 0.42563996 -0.13562119 3 0
-0.28235757 0.43931064 -0.10151039 2 2
-0.26512069 0.41519594 -0.13199772 3 0
-0.26519579 0.41563332 -0.11382524 4 1
-0.28293371 0.44360417 -0.10227363 2 2
-0.26837933 0.42159569 0.079155855 5 12
-0.26366964 0.41611892 -0.13199772 3 0
-0.26791328 0.42314231 -0.11562484 4 1
-0.27508378 0.4346357 -0.099983923 2 2
-0.26735711 0.42521393 -0.13458592 3 0
-0.28191814 0.44889373 -0.10303687 2 2
-0.26752776 0.4268066 0.079781592 5 12
-0.26587129 0.42614454 -0.13458592 3 0
-0.28450295 0.45653984 -0.10456334 2 2
-0.26539886 0.42871258 -0.13510354 3 0
-0.26306689 0.42511135 0.0087262029 2 8
-0.25731641 0.41598094 -0.11292543 4 1
-0.27877742 0.45085096 -0.10303687 2 2
-0.26288977 0.42799026 -0.13458592 3 0
-0.2619791 0.42684171 -0.11562484 4 1
-0.28130877 0.45851493 -0.10456334 2 2
-0.25913891 0.42271042 -0.07853011 4 3
-0.25536188 0.41900751 -0.13148008 3 0
-0.26555553 0.43607566 -0.11787436 4 1
-0.27562311 0.45278618 -0.10303687 2 2
-0.25589702 0.42320257 -0.13251536 3 0
-0.25503546 0.42194405 -0.11382524 4 1
-0.2801308 0.46382874 -0.10532658 2 2
-0.25807342 0.42798191 0.079155855 5 12
-0.26244494 0.43730041 -0.13665645 3 0
-0.25255892 0.42116034 -0.11337533 4 1
-0.27253467 0.45465183 -0.10303687 2 2
-0.26091695 0.4382138 -0.13665645 3 0
-0.2598497 0.4364213 0.0088658221 3 8
-0.25813746 0.43371773 -0.11652464 4 1
-0.26091108 0.43872625 -0.099220686 2 2
-0.25452432 0.42815691 0.043577868 5 10
-0.25344321 0.42667726 -0.060934674 4 4
-0.24621087 0.41549173 0.12940952 6 15
-0.25946248 0.43907654 -0.13665645 3 0
-0.25629076 0.43388212 0.008796013 3 8
-0.2496863 0.42286974 -0.11337533 4 1
-0.27142966 0.4598777 -0.1038001 2 2
-0.2556577 0.43402085 0.079781592 5 12
-0.24808422 0.42335707 -0.13148008 3 0
-0.25608823 0.43719086 -0.11697455 4 1
-0.26974222 0.46086955 -0.1038001 2 2
-0.26211429 0.44855478 0.08228454 5 12
-0.25631386 0.44092196 -0.13665645 3 0
-0.24567513 0.42296052 -0.11292543 4 1
-0.25179186 0.43349123 0.026272653 6 9
-0.26221722 0.45162129 -0.10151039 2 2
-0.25386414 0.43793836 -0.062153373 2 4
-0.24184629 0.41804731 0.12940952 6 15
-0.2509129 0.43511999 -0.13458592 3 0
-0.25373092 0.44000685 0.0088658221 3 8
-0.24427108 0.42377296 -0.11292543 4 1
-0.26651815 0.46274143 -0.1038001 2 2
-0.25306818 0.44009906 0.080407321 2 12
-0.25714463 0.44936338 -0.13872701 3 0
-0.25219357 0.44088981 0.0088658221 3 8
-0.24375771 0.42631471 -0.11337533 4 1
-0.26108548 0.45680469 -0.10227363 2 2
-0.25454268 0.44862258 -0.13820937 4 0
-0.25262678 0.44524589 0.0089356322 2 8
-0.25092065 0.44241875 -0.11742445 4 1
-0.26908901 0.47483903 -0.10608982 2 2
-0.24804412 0.43841657 0.079781592 5 12
-0.25392249 0.45119196 -0.13872701 3 0
-0.25099307 0.4461689 0.0089356322 3 8
-0.24834216 0.44163695 -0.11697455 4 1
-0.25346762 0.45093593 0.027110027 6 9
-0.26550579 0.47235265 -0.10532658 2 2
-0.24675328 0.43970901 -0.061909631 3 4
-0.25422904 0.45544931 -0.13976228 3 0
-0.24553679 0.44005716 0.008796013 3 8
-0.24869761 0.44590494 -0.11787436 4 1
-0.24994679 0.44832909 0.026900683 6 9
-0.26767921 0.48013568 -0.10685304 2 2
