# .PCD v0.7 - Point Cloud Data file format
VERSION 0.7
FIELDS x y z intensity ring
SIZE 4 4 4 4 2
TYPE F F F F U
COUNT 1 1 1 1 1
WIDTH 1337
HEIGHT 1
VIEWPOINT 0 0 0 1 0 0 0
POINTS 1337
DATA ascii
3.1375878 12.870908 0.69428885 5 9
1.1176656 4.5813756 -0.91664648 2 2
3.1391447 12.857789 1.1579511 7 10
1.3305937 5.4459243 -0.88792211 2 3
3.1538074 12.898305 1.6303681 14 11
1.6480958 6.7352161 -0.85137933 1 4
3.1584537 12.907543 2.1046696 29 12
2.1813631 8.9077673 -0.80235577 1 5
2.641665 10.779303 2.1572866 92 13
3.0994179 12.637621 -0.68193758 3 6
2.6472423 10.785753 2.5639923 90 14
3.166425 12.901077 -0.23187266 6 7
2.61971 10.665558 2.9427726 1 15
0.845761 3.4226816 -0.94468951 5 0
3.1449504 12.727194 0.22883596 15 8
0.97632217 3.9480948 -0.93894571 5 1
2.9310801 11.843961 0.63944077 6 9
1.1402594 4.6041255 -0.92198914 2 2
3.1423056 12.678506 1.142786 18 10
1.3448431 5.4261436 -0.88541919 2 3
3.1401696 12.660425 1.601607 14 11
1.6742492 6.7451262 -0.85332924 1 4
3.1434846 12.654883 2.065248 30 12
2.2182097 8.9233017 -0.80444747 1 5
2.6797619 10.780011 2.1591947 90 13
2.8602095 11.497312 -0.62091386 1 6
2.6867535 10.792045 2.5675914 90 14
3.1524515 12.653222 -0.22761428 6 7
2.6419711 10.596365 2.9262083 1 15
0.85676253 3.4159613 -0.9436543 5 0
2.8824451 11.48398 0.2066714 2 8
0.98983765 3.9407094 -0.93804586 3 1
2.9287052 11.65106 0.6296016 17 9
1.1544085 4.5925012 -0.92046267 2 2
2.8730438 11.421195 1.0303552 5 10
1.3608654 5.4058523 -0.88291621 2 3
2.8742518 11.409163 1.4446392 5 11
1.7038113 6.7581935 -0.85576659 1 4
2.8887925 11.450008 1.8703307 13 12
2.251878 8.9189749 -0.8047961 1 5
2.7178152 10.764404 2.1580498 92 13
2.881289 11.403486 -0.616413 15 6
2.7296369 10.795349 2.5707407 91 14
2.8946753 11.439652 -0.20597331 1 7
2.6893246 10.620319 2.9355259 1 15
0.87213886 3.4240305 -0.94676012 5 0
0.99781042 3.9145706 -0.93264711 3 1
2.9081411 11.400791 0.61662227 19 9
1.1760901 4.6072617 -0.92427886 2 2
2.9025543 11.362328 1.0259974 25 10
1.3796901 5.3970013 -0.88229048 2 3
2.8997993 11.343287 1.4375709 18 11
1.7214892 6.7291265 -0.85284173 1 4
2.9071839 11.355656 1.8565645 41 12
2.2879446 8.9303598 -0.80653924 1 5
2.757741 10.756272 2.1584315 88 13
2.9116466 11.348353 -0.61400551 42 6
2.7687037 10.783384 2.5702908 90 14
2.9236517 11.386866 -0.2052054 10 7
2.7129214 10.558476 2.9210317 2 15
0.88311821 3.4172246 -0.94572484 5 0
2.9360096 11.352707 0.20468183 29 8
1.011174 3.907114 -0.93174726 5 1
2.9299023 11.320963 0.61285412 30 9
1.1941332 4.6107302 -0.92580527 2 2
1.3995138 5.3959761 -0.88291621 2 3
2.9298878 11.28839 1.431965 21 11
1.750132 6.7381425 -0.85479164 1 4
2.9423382 11.328229 1.8537486 51 12
2.9666657 11.413704 -1.0317496 1 5
2.7552373 10.592678 2.1275203 15 13
2.9487295 11.328456 -0.61348212 47 6
2.7650633 10.615246 2.5324988 21 14
2.9522898 11.33402 -0.20443749 13 7
2.7331913 10.485384 2.9034321 2 15
0.89504045 3.4141214 -0.94572484 5 0
2.9680603 11.321631 0.20429787 34 8
1.025115 3.9075091 -0.93264711 5 1
2.9648404 11.29328 0.61191207 29 9
1.2032377 4.5799503 -0.92046267 2 2
2.9681296 11.289762 1.021291 37 10
1.421417 5.4065895 -0.88541919 2 3
2.9627571 11.261334 1.4297712 24 11
1.7714579 6.7284627 -0.85430413 1 4
2.9733055 11.285418 1.8484299 77 12
2.3481984 8.9064646 -0.80584198 1 5
2.7608163 10.471479 2.105005 15 13
2.9786403 11.289647 -0.61191207 30 6
2.7515004 10.421368 2.4884086 28 14
2.9831486 11.290779 -0.2038441 15 7
2.7366929 10.350645 2.8687503 12 15
0.90437371 3.403666 -0.9436543 5 0
3.0003655 11.284146 0.2038092 34 8
1.0437604 3.9227388 -0.93714613 3 1
2.9991076 11.263561 0.61086535 31 9
1.2234694 4.5949073 -0.92427886 2 2
3.0019584 11.266381 1.0200708 42 10
1.4392644 5.3977771 -0.8847934 2 3
2.9979575 11.235579 1.4278214 28 11
1.7959535 6.7260747 -0.85479164 1 4
3.0080945 11.257793 1.845614 72 12
3.0247433 11.320102 -1.0251257 1 5
2.788733 10.429535 2.0985174 14 13
3.0169902 11.275325 -0.61170274 38 6
2.7435031 10.246047 2.4488173 27 14
3.0152998 11.253254 -0.20335545 16 7
2.7297719 10.18056 2.8242335 20 15
0.91725367 3.4042192 -0.94468951 5 0
3.037657 11.265882 0.20366959 49 8
1.0544021 3.9077823 -0.93444669 5 1
3.0404866 11.260736 0.61128402 36 9
1.2415471 4.5981898 -0.92580527 2 2
3.0371125 11.240445 1.0186763 44 10
1.4550053 5.381278 -0.88291621 2 3
3.0397487 11.234628 1.4290401 36 11
1.8183851 6.7159324 -0.85430413 1 4
3.0463431 11.24341 1.8449883 72 12
3.0652847 11.31332 -1.0254744 1 5
2.8220372 10.408368 2.0962276 14 13
3.0521493 11.249304 -0.61086535 31 6
2.7363632 10.078432 2.4110253 27 14
3.0529876 11.236872 -0.20325074 20 7
2.7252545 10.023698 2.7833402 34 15
0.92913193 3.4009962 -0.94468951 5 0
3.076967 11.255208 0.20366959 58 8
1.0659767 3.8965604 -0.93264711 5 1
3.0797784 11.250053 0.61128402 42 9
1.2534446 4.5786796 -0.92275238 2 2
3.078439 11.237459 1.0193735 42 10
1.4748214 5.3799782 -0.88354194 2 3
3.0789495 11.223948 1.4290401 32 11
1.8449717 6.7210288 -0.85576659 1 4
3.0887032 11.244139 1.8468655 65 12
3.102638 11.294868 -1.0247772 1 5
2.8614771 10.409811 2.0985174 15 13
3.0914009 11.238581 -0.61086535 12 6
2.7239401 9.8959656 2.3696344 27 14
3.094851 11.235785 -0.20342524 31 7
2.7104359 9.8334713 2.7331293 26 15
0.94099563 3.397733 -0.94468951 5 0
3.1215742 11.26367 0.20401864 12 8
1.0795728 3.8928154 -0.93264711 5 1
3.1163511 11.229614 0.61076069 8 9
1.2694162 4.5742769 -0.92275238 2 2
3.1139123 11.213208 1.0181533 5 10
1.5020558 5.4052491 -0.8885479 2 3
3.1111989 11.188269 1.4258715 6 11
1.8694841 6.7183733 -0.8562541 1 4
2.4707756 8.8732414 -0.80584198 1 5
2.8967457 10.395977 2.0977542 15 13
3.1381195 11.254655 -0.61233073 3 6
2.7092395 9.7099543 2.3273437 25 14
3.1329799 11.22106 -0.20335545 4 7
2.705235 9.6825457 2.6937888 28 15
0.95389533 3.3981473 -0.94572484 5 0
3.1722322 11.293134 0.20475163 4 8
1.1005366 3.9152877 -0.93894571 5 1
3.1616831 11.248058 0.61233073 4 9
1.2821873 4.5584779 -0.92046267 2 2
3.161135 11.231039 1.020768 4 10
1.5134159 5.373354 -0.88416773 2 3
3.1663814 11.234662 1.4331836 3 11
1.8907704 6.7041636 -0.85527909 1 4
3.1737523 11.253272 1.8518714 7 12
2.496321 8.8453884 -0.8040989 1 5
2.9340763 10.389582 2.0985174 15 13
3.1833639 11.264773 -0.61348212 2 6
2.6985762 9.5429211 2.2895517 28 14
3.1756122 11.229853 -0.20370449 1 7
2.6973503 9.5322485 2.6544483 28 15
0.96522349 3.3929384 -0.94520718 6 0
3.2173219 11.309479 0.20524029 4 8
1.1103119 3.9003713 -0.93624628 5 1
3.2129674 11.279211 0.6146335 3 9
1.2991692 4.5577497 -0.92122585 2 2
3.2090557 11.250593 1.0235571 3 10
1.5333924 5.3759041 -0.88541919 2 3
3.2096157 11.245096 1.4358647 2 11
1.914081 6.7016745 -0.85576659 1 4
3.2195258 11.264917 1.8556259 5 12
2.5271842 8.8366203 -0.8040989 1 5
2.9652774 10.368469 2.0962276 15 13
3.2371852 11.311762 -0.61662227 2 6
2.6953332 9.4121466 2.2603083 28 14
3.2219512 11.24369 -0.20415826 1 7
2.6837509 9.3593569 2.6088963 27 15
0.97593582 3.3878622 -0.94468951 5 0
3.2673013 11.334689 0.20590349 3 8
1.123921 3.8964713 -0.93624628 5 1
3.2694926 11.327413 0.61787838 2 9
1.3197217 4.572279 -0.92504203 2 2
3.2612765 11.291571 1.0282634 2 10
1.55215 5.3705182 -0.88541919 2 3
3.2631907 11.283403 1.442202 1 11
1.9363574 6.6911387 -0.85527909 1 4
3.2753098 11.310535 1.8650119 3 12
2.5691071 8.8660173 -0.80758512 1 5
2.9970837 10.34297 2.0931747 14 13
2.6868992 9.2604437 2.2261157 30 14
3.2846003 11.313031 -0.20562425 0 7
2.6700516 9.1903896 2.5643792 25 15
0.99051195 3.3916805 -0.94676012 5 0
1.1331435 3.8775604 -0.93264711 3 1
7.7301807 26.435154 1.4434259 4 9
1.3364701 4.5674119 -0.92504203 2 2
6.559937 22.404202 2.0424078 4 10
1.570714 5.3610015 -0.8847934 2 3
1.9641718 6.6995783 -0.85722905 1 4
3.8752992 13.209688 2.1803839 1 12
2.5955479 8.8417015 -0.80619055 1 5
3.032757 10.324382 2.0916483 13 13
2.6779339 9.1047077 2.1910233 28 14
2.6650283 9.0549917 2.5291798 28 15
1.0034404 3.3919075 -0.94779539 5 0
7.8222232 26.424334 0.48102325 8 8
1.1528819 3.8920662 -0.93714613 5 1
7.8190002 26.396521 1.4427978 9 9
1.3512884 4.5589547 -0.92427886 2 2
6.6392312 22.384989 2.0427563 4 10
1.5894167 5.3554869 -0.8847934 2 3
1.9830577 6.6733065 -0.85479164 1 4
4.8509464 16.324209 2.6972432 1 12
2.6309366 8.8478661 -0.80758512 1 5
2.6601768 8.9290867 2.1509819 28 14
2.6635075 8.9345522 2.4981215 28 15
1.0141662 3.3846829 -0.94676012 5 0
7.9201446 26.432726 0.48165151 8 8
1.165783 3.8882215 -0.93714613 5 1
7.9099393 26.36524 1.4425884 9 9
1.3717109 4.569252 -0.92733175 2 2
6.7247858 22.38648 2.0450222 7 10
1.6105788 5.3615375 -0.88667065 2 3
2.0108957 6.6857023 -0.85722905 1 4
4.9056258 16.299608 2.695992 1 12
2.6641018 8.846261 -0.80828232 1 5
3.1069207 10.31666 2.0943196 1 13
2.6554563 8.8064041 2.123538 29 14
5.2686672 17.461681 -0.3183668 1 7
2.6500077 8.7772493 2.4567106 27 15
1.0231414 3.3739061 -0.94468951 5 0
8.0111971 26.401094 0.48158172 8 8
1.1838769 3.8990459 -0.94074529 5 1
8.0088978 26.360399 1.4438446 9 9
1.3822891 4.5496511 -0.92427886 2 2
6.8070941 22.390745 2.0474627 7 10
1.6292831 5.3558826 -0.88667065 2 3
2.0307493 6.6672487 -0.85576659 1 4
4.9705515 16.30884 2.700372 1 12
2.6876163 8.8183184 -0.80653924 1 5
3.1457794 10.315139 2.0962276 1 13
2.6497555 8.6777992 2.0947442 30 14
2.6365721 8.6238461 2.4163346 28 15
1.0360475 3.3740077 -0.94572484 5 0
8.0809813 26.300333 0.48025534 8 8
1.1894634 3.8688118 -0.93444669 5 1
8.1073303 26.353277 1.4449959 9 9
1.4027811 4.5598092 -0.92733175 2 2
6.901619 22.420166 2.0523434 7 10
1.6433182 5.3350596 -0.88416773 2 3
2.0581036 6.6733985 -0.85747278 2 4
5.0274539 16.291389 2.700372 1 12
2.7183838 8.8088818 -0.80653924 1 5
3.1736605 10.277833 2.0908849 1 13
2.643194 8.5493412 2.0659504 28 14
2.6335235 8.5075541 2.3863118 43 15
1.0489649 3.3740604 -0.94676012 5 0
8.1180973 26.096296 0.47704408 8 8
1.2052767 3.8720791 -0.93624628 5 1
8.2010479 26.330542 1.4453099 9 9
1.414018 4.5398903 -0.92427886 2 2
6.9780655 22.390232 2.0518205 4 10
1.6713393 5.3594646 -0.88917363 2 3
2.0831621 6.6718578 -0.85820401 1 4
5.0913568 16.29637 2.7041266 1 12
2.7518389 8.8026628 -0.80688787 1 5
3.2106872 10.270441 2.0916483 1 13
2.6642914 8.512166 2.059202 24 14
2.6285448 8.387702 2.3552535 40 15
1.0630645 3.3757212 -0.94831306 6 0
3.0098763 9.5577488 0.17490801 2 8
1.216442 3.860414 -0.93444669 5 1
8.2989216 26.320799 1.4463567 4 9
1.4318283 4.5384216 -0.92504203 2 2
7.0684748 22.391106 2.054261 4 10
1.6897827 5.349535 -0.8885479 2 3
2.1028509 6.6531882 -0.85674155 1 4
5.1541634 16.297333 2.7072554 1 12
2.784956 8.800602 -0.80758512 1 5
3.2471259 10.25486 2.0908849 1 13
2.6954701 8.5023441 2.059202 24 14
2.6227615 8.2679892 2.3241951 35 15
1.0742557 3.3701489 -0.94779539 5 0
8.316782 26.075636 0.47774217 8 8
1.2317669 3.8596425 -0.93534642 5 1
8.4020138 26.311136 1.447508 9 9
1.4440796 4.5221744 -0.92275238 2 2
7.1611519 22.411844 2.0584443 4 10
1.7084422 5.343605 -0.8885479 2 3
5.5531621 17.358511 2.2377651 1 11
2.1260102 6.6416554 -0.8562541 1 4
5.2102427 16.267046 2.7053778 1 12
2.8217301 8.809803 -0.8093282 1 5
3.2912881 10.269637 2.0962276 1 13
2.7215621 8.4817486 2.0565026 25 14
2.6152296 8.1406088 2.2910662 40 15
1.081269 3.35167 -0.9436543 5 0
8.5072622 26.354736 0.48339677 8 8
1.2440352 3.8516104 -0.93444669 5 1
8.5048685 26.315853 1.4493922 9 9
1.4695171 4.5469952 -0.92885822 2 2
7.2362704 22.377234 2.0575728 7 10
1.7283022 5.3413677 -0.88917363 2 3
5.6222854 17.365458 2.2411776 1 11
2.1583562 6.6625209 -0.85991013 2 4
5.2743073 16.271309 2.7091324 1 12
2.8450947 8.7771549 -0.80723643 1 5
3.3253019 10.252482 2.0950828 1 13
2.7559612 8.4870262 2.0601017 23 14
2.6065955 8.0175238 2.2589729 40 15
1.0953578 3.3552217 -0.94572484 5 0
8.5781012 26.260248 0.48220998 4 8
1.261106 3.8583584 -0.93714613 5 1
8.6078329 26.320181 1.4512762 9 9
1.4817154 4.530643 -0.92656857 2 2
7.326736 22.389706 2.061059 7 10
1.7444789 5.3277917 -0.88792211 2 3
5.6779113 17.330641 2.2392275 1 11
2.1791279 6.6474013 -0.85893518 2 4
5.3458529 16.297844 2.7166412 2 12
2.8794439 8.7785292 -0.80828232 1 5
3.4510579 10.515023 2.1511807 2 13
2.7831388 8.4699488 2.0583022 25 14
2.5995533 7.9019403 2.2289498 40 15
1.1082759 3.3550463 -0.94676012 5 0
7.4133492 22.429005 0.41233057 5 8
1.272118 3.8465316 -0.93534642 5 1
7.4108701 22.395304 1.2362801 6 9
1.4938221 4.5142603 -0.92427886 2 2
7.4061041 22.367775 2.0614076 7 10
1.7655498 5.3291717 -0.88917363 2 3
5.722137 17.261723 2.2328904 1 11
2.2060699 6.6510582 -0.86039764 2 4
5.4101734 16.301582 2.7203958 2 12
2.916343 8.7873344 -0.81002545 1 5
3.4865065 10.499186 2.1504176 2 13
2.8102264 8.4527855 2.0565026 26 14
7.4639573 22.437504 -0.41274941 2 7
2.5966172 7.801168 2.2030678 43 15
1.1248784 3.3658154 -0.95090121 5 0
7.4979224 22.421961 0.41267961 5 8
1.2855381 3.8420675 -0.93534642 5 1
7.4947004 22.386345 1.2372222 9 9
1.519542 4.538806 -0.93038476 2 2
7.4961457 22.377687 2.0647194 4 10
1.7879093 5.3342133 -0.89105082 2 3
5.7823606 17.24164 2.2328904 1 11
2.2229533 6.6244993 -0.85796028 2 4
5.4683056 16.286343 2.7210214 2 12
2.9444644 8.7695456 -0.8093282 1 5
3.4893751 10.386455 2.1298101 2 13
2.8372326 8.4355364 2.054703 27 14
2.5880737 7.6858683 2.1730449 38 15
1.1329089 3.3508875 -0.94779539 5 0
7.5838394 22.418381 0.41309848 8 8
1.2964417 3.8301735 -0.93354684 5 1
7.5766478 22.371393 1.2378501 9 9
1.5265605 4.5074401 -0.92504203 2 2
7.5831709 22.3778 2.0671599 4 10
1.8052485 5.3241987 -0.89042509 2 3
5.8425069 17.221354 2.2328904 1 11
2.2422366 6.6054196 -0.85649782 2 4
4.4108195 12.986417 2.1722493 1 12
2.955833 8.7026186 -0.8040989 1 5
3.5483484 10.441129 2.1435483 2 13
2.8666632 8.42558 2.054703 26 14
7.4902425 22.002459 -0.40569863 1 7
2.5837407 7.5853539 2.1471629 43 15
1.1402651 3.336144 -0.94468951 5 0
7.668499 22.42338 0.41365695 8 8
1.3154442 3.8442914 -0.93804586 5 1
7.6617856 22.378269 1.2396295 9 9
1.5414984 4.5023532 -0.92504203 2 2
7.6599264 22.360069 2.0678573 4 10
1.815207 5.2957592 -0.88667065 2 3
5.8854117 17.160576 2.2275281 1 11
2.2725067 6.6223569 -0.85966641 1 4
4.4538574 12.97172 2.1722493 0 12
3.4713275 10.104375 2.0767653 2 13
2.8958495 8.4197149 2.0556028 27 14
7.556664 21.958591 -0.40534961 3 7
2.5673718 7.4561882 2.1129987 40 15
1.1544291 3.3394465 -0.94676012 5 0
4.5201731 13.068233 0.24136679 1 8
1.3275818 3.8359931 -0.93714613 5 1
7.7561994 22.398571 1.2422464 3 9
1.5623457 4.511786 -0.92809504 2 2
4.5091701 13.014362 1.2050152 1 10
1.8272127 5.2707262 -0.88354194 2 3
5.9856157 17.256205 2.2426398 1 11
2.2930045 6.606883 -0.85869151 1 4
4.4926338 12.937432 2.1691206 1 12
3.4782236 10.010599 2.059974 2 13
2.9226635 8.4021921 2.053803 27 14
4.5294766 13.014205 -0.24052906 0 7
2.5666978 7.3705559 2.0912578 47 15
1.1673533 3.3390441 -0.94779539 5 0
4.5208607 12.924022 0.23899324 2 8
1.3396772 3.8276565 -0.93624628 5 1
4.5096941 12.884865 0.71543258 2 9
1.5754888 4.4988937 -0.92656857 2 2
4.5045028 12.855639 1.1917676 2 10
1.8521367 5.2829571 -0.88667065 2 3
4.5082393 12.851947 1.6722913 2 11
2.3239434 6.6213145 -0.86161631 1 4
4.519814 12.877728 2.1616118 3 12
3.5079372 9.9835796 2.056921 2 13
4.539434 12.904793 -0.23878384 0 7
2.5577729 7.2672467 2.0643408 42 15
1.1802902 3.3385911 -0.94883066 5 0
4.5117078 12.761902 0.23627068 2 8
1.3497608 3.815845 -0.93444669 5 1
4.4973326 12.707124 0.70643085 2 9
1.588563 4.4859638 -0.92504203 2 2
4.5001016 12.70087 1.1788685 2 10
1.8696419 5.2767873 -0.88667065 2 3
4.4990997 12.690987 1.6532797 2 11
2.3399138 6.5967345 -0.85942268 2 4
4.5145221 12.72039 2.1378336 3 12
3.5495682 9.9959421 2.0618823 2 13
4.4506664 12.526593 -0.69669628 1 6
2.9758711 8.3710861 2.0511036 2 14
4.512074 12.68539 -0.23501411 0 7
2.5572176 7.1854725 2.0436354 47 15
1.1913558 3.3346584 -0.94883066 5 0
4.5010309 12.591669 0.23340848 2 8
1.3670111 3.8221195 -0.93714613 5 1
4.4985967 12.570994 0.69973183 2 9
1.6126925 4.5065494 -0.93038476 2 2
4.4750352 12.498297 1.1614374 2 10
1.8933812 5.2851057 -0.88917363 2 3
4.4884505 12.521972 1.633293 2 11
2.3615847 6.5847902 -0.85893518 2 4
4.5055194 12.555812 2.1128042 3 12
3.5771437 9.9631643 2.0576842 2 13
4.4470963 12.379406 -0.68936932 1 6
3.010345 8.3753195 2.054703 3 14
4.5035467 12.522789 -0.23229153 0 7
2.556123 7.1037912 2.0229297 43 15
1.1996297 3.3193688 -0.94572484 5 0
4.4844694 12.408503 0.23030196 2 8
1.3829961 3.8246543 -0.93894571 5 1
4.4785686 12.378675 0.68989259 2 9
1.6198423 4.4747643 -0.92504203 2 2
4.4787498 12.365665 1.1506301 2 10
1.9113921 5.2744164 -0.8885479 2 3
4.4780173 12.356925 1.613794 2 11
2.3818507 6.5690413 -0.85796028 2 4
4.488019 12.371023 2.0843329 3 12
3.6156452 9.9555235 2.0588293 2 13
4.4487867 12.242884 -0.6826703 1 6
3.0436833 8.3715563 2.0565026 3 14
4.5034928 12.386717 -0.23005761 0 7
2.5756195 7.0803022 2.0187886 37 15
1.21121 3.315161 -0.94572484 5 0
4.4791102 12.253001 0.22771899 2 8
1.3970039 3.8195601 -0.93894571 5 1
4.473731 12.231665 0.68256563 2 9
1.6435498 4.4912062 -0.92962146 2 2
4.468452 12.204025 1.1370338 2 10
1.9284339 5.2640018 -0.88792211 2 3
4.4781976 12.217413 1.5977073 2 11
2.4093273 6.5695853 -0.8591789 1 4
4.4849219 12.229172 2.0630579 3 12
3.64767 9.9354687 2.0573027 2 13
4.480474 12.197286 -0.68099552 1 6
3.0675113 8.3462467 2.0529034 2 14
4.4928999 12.22452 -0.22733505 0 7
2.5976536 7.0640154 2.0167181 37 15
1.2241111 3.3145382 -0.94676012 5 0
4.4670649 12.095517 0.22506624 1 8
1.4083126 3.81125 -0.93804586 5 1
4.4838514 12.127926 0.67764604 1 9
1.6619383 4.4928083 -0.93114793 2 2
4.4958138 12.147244 1.133199 1 10
1.9499947 5.268693 -0.88979936 2 3
4.4800811 12.098249 1.5840578 2 11
2.4338572 6.5690064 -0.86015391 1 4
4.4932542 12.12083 2.0474145 2 12
3.6751339 9.9085941 2.0542498 1 13
4.4069343 11.875274 -0.66382933 1 6
3.0795729 8.2940111 2.0425556 1 14
4.5202265 12.167521 -0.22656713 0 7
2.6236372 7.0585289 2.0177534 37 15
1.2404989 3.3249402 -0.95090121 5 0
4.446322 11.91124 0.2219248 2 8
1.4243323 3.8136139 -0.93984544 5 1
4.4443727 11.899697 0.66571343 2 9
1.6727057 4.4762373 -0.92885822 2 2
4.460711 11.930717 1.1143733 2 10
1.9656019 5.2544546 -0.8885479 2 3
4.4610481 11.918934 1.5626088 2 11
2.44842 6.5381618 -0.85722905 1 4
4.4669166 11.928273 2.017379 3 12
3.7103858 9.897543 2.0546315 2 13
4.4090838 11.755095 -0.65796769 1 6
3.1215167 8.317874 2.0511036 2 14
4.4579754 11.879122 -0.22147104 0 7
2.6443152 7.0425544 2.0156829 36 15
1.2520984 3.3205895 -0.95090121 5 0
4.4547563 11.8141 0.22038898 2 8
1.4328448 3.7979298 -0.93714613 5 1
4.445683 11.7776 0.65974712 2 9
1.6897089 4.4740443 -0.92962146 2 2
4.4473958 11.769702 1.100777 2 10
1.9899997 5.266386 -0.89167655 2 3
4.4471931 11.762959 1.5440848 2 11
2.4764109 6.5467162 -0.85942268 2 4
4.4623761 11.790674 1.9967299 3 12
3.7494419 9.9017096 2.0580659 2 13
4.409833 11.639551 -0.65231544 1 6
3.1532214 8.3184128 2.053803 2 14
4.4639497 11.770004 -0.21972579 0 7
2.6729965 7.0441175 2.0187886 40 15
1.2562264 3.2983656 -0.94572484 5 0
4.4532366 11.686365 0.2182947 2 8
1.4509541 3.8056512 -0.94029546 5 1
4.4340935 11.623919 0.65200138 2 9
1.6989375 4.4537425 -0.92656857 2 2
4.4309897 11.609697 1.0871807 2 10
2.0111907 5.2667885 -0.892928 2 3
4.440053 11.621265 1.5275104 2 11
2.5091698 6.5639915 -0.86283505 2 4
4.4512901 11.638491 1.9735774 4 12
3.780477 9.8793926 2.0561578 2 13
4.3890185 11.463679 -0.64331365 1 6
3.1836355 8.3109941 2.054703 3 14
4.4506207 11.612438 -0.21707304 0 7
2.6878836 7.0094914 2.0115416 36 15
1.2669179 3.290134 -0.94468951 5 0
4.4106503 11.454278 0.21424575 2 8
1.4642304 3.8005629 -0.94029546 5 1
4.4265099 11.48351 0.64498836 2 9
1.7166618 4.451149 -0.92733175 2 2
4.4276104 11.474414 1.0760248 2 10
2.0262108 5.2483249 -0.89105082 2 3
4.4348321 11.487176 1.5119112 2 11
2.5334961 6.5588965 -0.8633225 2 4
4.4491668 11.512327 1.9548053 4 12
3.8145339 9.8599777 2.0550129 2 13
4.3877511 11.335759 -0.63703334 1 6
3.2182963 8.310174 2.0574024 2 14
4.4449077 11.477489 -0.21483912 0 7
2.7151253 7.0072722 2.0136123 38 15
1.2868001 3.3072963 -0.95090121 5 0
4.4308424 11.382129 0.2131986 3 8
1.4731987 3.7824597 -0.93714613 5 1
4.4301372 11.368576 0.63944077 2 9
1.7336156 4.4487877 -0.92809504 2 2
4.419868 11.336375 1.0645202 2 10
2.0402131 5.2301784 -0.88917363 2 3
4.424222 11.33585 1.4941182 3 11
2.563297 6.5643597 -0.8652724 2 4
4.4438858 11.374509 1.9341559 4 12
3.8503606 9.8502588 2.0557761 2 13
4.380734 11.20133 -0.63033432 1 6
3.2416058 8.2843704 2.053803 2 14
4.4446664 11.353119 -0.21281464 0 7
2.739383 6.9936757 2.0125771 37 15
1.2962176 3.2973905 -0.94934833 6 0
4.4222379 11.243772 0.21089488 3 8
1.484965 3.7736676 -0.93624628 5 1
4.4207697 11.228531 0.63242775 3 9
1.7606407 4.4719381 -0.93420094 2 2
4.4236293 11.230044 1.0559789 3 10
2.0599046 5.2267003 -0.88979936 2 3
4.4302654 11.23539 1.4829062 3 11
2.5730805 6.5221334 -0.86088508 2 4
4.4385996 11.245006 1.9147581 4 12
3.8767865 9.8166723 2.0515785 2 13
4.3794379 11.083808 -0.6245774 2 6
3.2705059 8.2730036 2.053803 2 14
4.4313116 11.20365 -0.21030149 0 7
2.7651987 6.9876633 2.0136123 37 15
1.3098596 3.2982316 -0.95090121 5 0
4.4260135 11.139067 0.20921946 3 8
1.501729 3.7775152 -0.93849587 5 1
4.4200802 11.112814 0.6267755 3 9
1.7718875 4.4548192 -0.93191117 2 2
4.4127059 11.088654 1.0441258 3 10
2.0854452 5.2378302 -0.892928 2 3
4.4136291 11.0797 1.4643822 3 11
2.6061196 6.5389295 -0.86429745 2 4
4.421484 11.08816 1.8906672 5 12
3.9183073 9.8213139 2.0553946 2 13
4.3781157 10.968287 -0.61892503 5 6
3.2906897 8.2398214 2.0484045 2 14
4.4288454 11.084124 -0.20834683 0 7
2.7910094 6.9815559 2.0146475 34 15
1.3184867 3.2864676 -0.94883066 5 0
4.4082603 10.982508 0.20656668 7 8
1.5141788 3.770442 -0.93804586 5 1
4.3985267 10.947204 0.61829704 5 9
1.7771788 4.4231033 -0.92656857 2 2
4.3867364 10.912354 1.0289607 6 10
2.1022406 5.2268538 -0.89230233 2 3
4.4033651 10.942681 1.4482955 2 11
2.6289306 6.5297923 -0.86429745 2 4
4.4173512 10.966384 1.8725207 5 12
3.952564 9.8075781 2.0553946 3 13
4.4208598 10.96405 -0.61955309 7 6
3.3281827 8.2499695 2.053803 3 14
4.4173608 10.944356 -0.20600821 3 7
2.8124678 6.9646063 2.0125771 33 15
1.3285004 3.278264 -0.94779539 5 0
4.4405613 10.952227 0.20628744 8 8
1.5287952 3.7687457 -0.93894571 5 1
4.4442267 10.95029 0.61934376 8 9
1.8044214 4.4459786 -0.93267435 2 2
4.4352975 10.922816 1.031401 7 10
2.1174977 5.2121634 -0.89105082 2 3
4.4019222 10.829778 1.4353772 2 11
2.6524572 6.5224133 -0.86454117 1 4
4.4124231 10.844775 1.8543743 5 12
3.9764142 9.7682619 2.0500519 4 13
4.4643812 10.961498 -0.62028581 8 6
3.3451889 8.2094297 2.0466046 3 14
4.458559 10.936275 -0.20614782 3 7
2.8323855 6.9440131 2.0094712 38 15
1.3428605 3.2807591 -0.94986594 5 0
4.4939189 10.973672 0.20698555 9 8
1.5419422 3.7633858 -0.93894571 5 1
4.4884815 10.949494 0.62018114 8 9
1.8229077 4.4469199 -0.93420094 2 2
4.4862485 10.938606 1.0343643 11 10
2.1356802 5.20474 -0.89105082 2 3
4.3846664 10.68029 1.4175844 2 11
2.6782238 6.5204606 -0.86551613 1 4
4.4089584 10.728815 1.8371665 6 12
4.0209422 9.7797432 2.0553946 1 13
4.4593053 10.840566 -0.6143195 2 6
3.3523185 8.1454411 2.0335574 2 14
4.5043235 10.939136 -0.20649688 3 7
1.3557813 3.2796223 -0.95090121 5 0
1.5520883 3.7507782 -0.93714613 5 1
4.4819984 10.831203 0.6143195 2 9
1.8324103 4.4260182 -0.93114793 2 2
4.4870462 10.832683 1.0258231 2 10
2.1568592 5.2045536 -0.89230233 2 3
4.3816175 10.567735 1.4046662 2 11
2.6842363 6.4707327 -0.86015391 1 4
4.3953166 10.595533 1.81683 5 12
4.0859165 9.8399887 2.0710409 1 13
4.4465489 10.7032 -0.60741121 2 6
3.3545551 8.0707064 2.0178108 4 14
4.4952888 10.815192 -0.20443749 0 7
2.887001 6.9424114 2.0146475 3 15
1.3657333 3.2713037 -0.94986594 5 0
4.4868474 10.747223 0.20328563 2 8
1.564517 3.7456112 -0.93714613 5 1
4.481276 10.723349 0.60908592 2 9
1.8387622 4.3978591 -0.92656857 2 2
4.4756165 10.699322 1.0146672 2 10
2.1802034 5.2119517 -0.89480525 2 3
4.3783212 10.461586 1.3924793 2 11
2.7133453 6.4801068 -0.86259133 1 4
4.384182 10.465346 1.7971194 6 12
4.1344647 9.8644094 2.0790551 1 13
4.4457145 10.601829 -0.60249156 1 6
3.3858178 8.070322 2.0205104 6 14
4.4927659 10.703556 -0.20262244 0 7
2.9029908 6.9126987 2.0089536 5 15
1.3720738 3.2560751 -0.94676012 5 0
4.4839368 10.63568 0.20147058 2 8
1.5866714 3.761673 -0.94254488 5 1
4.4736438 10.600913 0.60301495 2 9
1.8640234 4.4170594 -0.93191117 2 2
4.4583778 10.559607 1.0028139 2 10
2.2014594 5.2115879 -0.89605671 2 3
4.3730855 10.347499 1.3793174 2 11
2.7545011 6.5144773 -0.86844105 1 4
4.3852868 10.366291 1.7827275 6 12
4.1627531 9.8354511 2.0760019 1 13
4.4429746 10.492449 -0.59715331 2 6
3.4147303 8.0602484 2.0209603 6 14
4.4801593 10.569974 -0.20038854 0 7
2.9255931 6.8989663 2.0079181 5 15
1.3917493 3.2708204 -0.95245409 6 0
4.4646425 10.487488 0.19895743 3 8
1.5952115 3.7453537 -0.93984544 5 1
4.4683342 10.486017 0.59736264 2 9
1.8809667 4.4141393 -0.93267435 2 2
4.4577079 10.456005 0.99444705 2 10
2.2242894 5.2147732 -0.89793396 2 3
4.3624229 10.222627 1.364693 1 11
2.7795641 6.5102987 -0.86917222 2 4
4.3772178 10.247373 1.7648939 7 12
4.1955104 9.8172522 2.0752387 1 13
4.4230413 10.344652 -0.58961695 2 6
3.4466794 8.0572376 2.0232098 7 14
4.4808283 10.469707 -0.19878291 0 7
2.9496591 6.8887115 2.0079181 5 15
1.4016337 3.262392 -0.95141882 6 0
4.4554191 10.365284 0.19693296 2 8
1.6044257 3.7308123 -0.93759602 5 1
4.449657 10.341928 0.59003562 2 9
1.8979167 4.4111528 -0.93343765 2 2
4.4437647 10.323256 0.98329109 2 10
2.2362268 5.1924634 -0.89543104 2 3
4.336813 10.065136 1.3456814 1 11
2.7535524 6.3875346 -0.85406041 2 4
4.3722796 10.137712 1.7486247 7 12
2.5549061 5.9238896 -0.56442058 2 5
4.2297559 9.8025465 2.0752387 1 13
2.5513515 5.9099669 -0.33735761 4 6
3.4716909 8.0380011 2.02141 8 14
4.4681711 10.340192 -0.19661881 0 7
2.9706225 6.8712797 2.0058477 5 15
1.4168562 3.2663412 -0.95400703 5 0
2.5634279 5.9067597 0.11239351 3 8
1.6228726 3.7377009 -0.94074529 5 1
2.5631595 5.9005013 0.33714828 4 9
1.9101731 4.3972988 -0.93191117 2 2
2.5658789 5.9039416 0.56320041 2 10
2.2622163 5.2027402 -0.89855969 2 3
2.5537829 5.8705029 0.78605735 1 11
2.5627294 5.8882594 -0.78849471 11 4
2.5780253 5.9205723 1.0227686 3 12
2.5644345 5.8893604 -0.56198025 19 5
2.5640159 5.8855925 1.2478909 1 13
2.5480247 5.8460984 -0.33421743 16 6
2.5759194 5.9072847 1.4878262 3 14
2.5667694 5.8834977 -0.11204445 2 7
2.5680044 5.8835268 1.7201115 7 15
1.4259253 3.2560666 -0.95245409 6 0
2.5671799 5.8593116 0.1116605 16 8
1.6398208 3.7409382 -0.94299489 5 1
2.561866 5.844408 0.33442679 20 9
1.9239352 4.3870082 -0.93114793 2 2
2.5648596 5.8456869 0.55849403 14 10
2.2803624 5.1948128 -0.89855969 2 3
2.5670769 5.8451948 0.78386366 18 11
2.5801618 5.8722043 1.0158856 18 12
2.5681379 5.8420706 -0.55831969 22 5
2.5571532 5.8115754 -0.33275205 21 6
2.5776789 5.8554521 1.4770286 17 14
2.5661221 5.8291993 -0.11117183 12 7
1.4310342 3.2369339 -0.94831306 6 0
1.6459101 3.7212222 -0.93939561 5 1
2.5757842 5.8208184 0.3335894 21 9
1.9376487 4.3766751 -0.93038476 2 2
2.5755651 5.8148379 0.55640227 24 10
2.2959754 5.1836104 -0.89793396 2 3
2.5695586 5.7985363 0.77874517 21 11
2.5858572 5.8325682 -0.78337622 33 4
2.5902302 5.8396883 1.0118183 26 12
2.5893247 5.8348913 -0.55849403 38 5
2.5801284 5.8141685 1.2364424 33 13
2.5731707 5.7957611 -0.33233336 24 6
2.5828416 5.814815 1.4689304 30 14
2.5750868 5.7946224 -0.11068317 13 7
2.5577636 5.7529349 1.6869825 38 15
1.4409727 3.2304065 -0.94779539 5 0
2.5923345 5.8088317 0.11103221 45 8
1.6565071 3.7101152 -0.93804586 5 1
2.5846844 5.7862611 0.33212399 31 9
1.953752 4.3738103 -0.93114793 2 2
2.5834546 5.7807989 0.55396187 18 10
2.3076067 5.1611371 -0.89543104 2 3
2.5978882 5.8076534 0.78118259 36 11
2.5980909 5.805388 -0.78093886 39 4
2.5968773 5.7999616 1.0064995 28 12
2.5958283 5.7949066 -0.55553067 30 5
2.5723159 5.7424173 1.2230858 27 13
2.5852168 5.7685189 -0.33128664 45 6
2.5959496 5.7897596 1.4648812 26 14
2.5895677 5.7728267 -0.11043882 15 7
2.5802011 5.7492595 1.6885355 65 15
1.4559777 3.2321486 -0.94986594 5 0
2.6035624 5.7796903 0.11064825 39 8
1.6702477 3.7060876 -0.93849587 5 1
2.6040442 5.7753835 0.33201933 29 9
1.9713854 4.3701987 -0.93191117 2 2
2.6046264 5.7712903 0.55396187 25 10
2.3395131 5.1814508 -0.90043688 2 3
2.593637 5.7442737 0.77387041 34 11
2.6069002 5.7709556 -0.77752644 39 4
2.6106005 5.7764597 1.0039965 29 12
2.6094725 5.7712874 -0.55413622 32 5
2.5852554 5.7150621 1.2192695 30 13
2.5964618 5.7371688 -0.33003056 33 6
2.6083095 5.7606788 1.4599323 28 14
2.6072273 5.7582884 -0.11033412 17 7
2.5898929 5.7173409 1.6818062 51 15
1.4728462 3.2393579 -0.95348942 6 0
2.6147916 5.7482672 0.1102294 46 8
1.6805921 3.6928456 -0.93669617 5 1
2.6126075 5.740808 0.33055395 30 9
1.9849982 4.3597188 -0.93114793 2 2
2.6197991 5.7512846 0.55291605 26 10
2.3756084 5.2127976 -0.90732002 2 3
2.6080837 5.7202792 0.77192044 36 11
2.6189709 5.7414961 -0.77484536 42 4
2.6225491 5.7493401 1.0008678 30 12
2.6279492 5.7585168 -0.55378759 32 5
2.6011107 5.6970744 1.2173615 33 13
2.6156414 5.7262545 -0.32992589 36 6
2.6227338 5.7391315 1.4567831 28 14
2.6206636 5.734601 -0.11005487 19 7
2.6082268 5.7047529 1.680771 53 15
1.4809225 3.2271731 -0.95141882 6 0
2.628834 5.7286606 0.11001997 53 8
1.695269 3.6925647 -0.93804586 5 1
2.6276281 5.7207642 0.32992589 31 9
2.0018449 4.3563304 -0.93191117 2 2
2.6332026 5.7276225 0.55152148 31 10
2.4060853 5.2336073 -0.91232592 2 3
2.6278696 5.7134023 0.77216423 39 11
2.6346755 5.7255669 -0.77387041 42 4
2.6376469 5.7293835 0.9989906 29 12
2.6430323 5.7384515 -0.55274171 38 5
2.6167023 5.6812854 1.215835 34 13
2.6295996 5.706666 -0.32929787 37 6
2.635226 5.7162442 1.4531839 29 14
2.6306138 5.7036285 -0.10963602 20 7
2.6208382 5.6798267 1.6761122 61 15
1.4875592 3.2134786 -0.94883066 5 0
2.6488161 5.7194486 0.11001997 60 8
1.712242 3.695467 -0.94029546 5 1
2.6475828 5.7115564 0.32992589 36 9
2.0129788 4.3425431 -0.93038476 2 2
2.6387687 5.68994 0.54873258 27 10
2.4459519 5.2717676 -0.92046052 2 3
2.646127 5.7005925 0.77167672 39 11
2.6529746 5.7127333 -0.7733829 42 4
2.6509676 5.705812 0.99648768 33 12
2.6544905 5.7133942 -0.55117291 48 5
2.6365192 5.6721158 1.215835 36 13
2.6461363 5.6902075 -0.32887918 39 6
2.6502273 5.6964111 1.4504844 28 14
2.6454458 5.6835332 -0.1094266 20 7
2.6333103 5.6548815 1.6714535 73 15
1.5061271 3.2240186 -0.95348942 6 0
2.6619897 5.6956749 0.10974073 46 8
1.7251322 3.6894672 -0.94029546 5 1
2.667505 5.7022791 0.32992589 52 9
2.0414362 4.3639421 -0.93649065 2 2
2.6611466 5.6861081 0.54925549 31 10
2.4693663 5.2739305 -0.92233771 2 3
2.662643 5.6841297 0.77070183 39 11
2.6762679 5.710628 -0.77435786 51 4
2.6700315 5.6947346 0.99617481 40 12
2.6727276 5.7004848 -0.55082428 46 5
2.6496341 5.6486578 1.212782 37 13
2.6659815 5.6809368 -0.32887918 37 6
2.6717532 5.6906528 1.4513842 30 14
2.6618695 5.6670237 -0.10928696 24 7
2.654676 5.6491528 1.6724888 73 15
1.5157222 3.2152479 -0.95245409 6 0
2.6835625 5.6899648 0.10981054 85 8
1.7396626 3.6869478 -0.94119519 5 1
2.6872482 5.69521 0.33003056 58 9
2.0533011 4.3496895 -0.93496412 2 2
2.6826818 5.680387 0.54960412 36 10
2.51561 5.3242183 -0.93266243 3 3
2.6807675 5.6712132 0.77021432 39 11
2.6960378 5.7035179 -0.77460164 39 4
2.6990368 5.7072773 0.99992919 45 12
2.6943154 5.6947217 -0.55117291 52 5
2.6676514 5.6358271 1.2120188 37 13
2.6823778 5.6643753 -0.32846051 49 6
2.6906109 5.6817608 1.4513842 34 14
2.6883519 5.6744299 -0.10960111 27 7
2.6700835 5.6333361 1.6704183 73 15
1.528036 3.2136929 -0.95348942 6 0
1.7435044 3.6635628 -0.93669617 5 1
2.6992521 5.6718407 0.3291932 61 9
2.0575876 4.3215852 -0.93038476 2 2
2.6997893 5.6678629 0.54925549 38 10
2.4967096 5.2391672 -0.91920906 2 3
2.6944349 5.6515398 0.76875186 40 11
2.7055407 5.6748343 -0.77192044 42 4
2.7094426 5.6804662 0.99680054 40 12
2.7209065 5.7019396 -0.55274171 59 5
2.6863277 5.6269493 1.2120188 39 13
2.6968417 5.6464376 -0.32793713 57 6
2.6985178 5.6499472 1.4455354 35 14
2.7166395 5.6853304 -0.10998507 52 7
2.6887515 5.6244502 1.6704183 81 15
1.5420252 3.2155762 -0.95555997 6 0
2.731621 5.6936774 0.1102294 90 8
1.7674503 3.6823564 -0.94299489 5 1
2.7207646 5.6659832 0.32940254 59 9
2.0702066 4.3111987 -0.92962146 2 2
2.726336 5.6750407 0.55082428 50 10
2.4986658 5.198812 -0.91357738 2 3
2.7140205 5.6443639 0.76899564 47 11
2.7184505 5.6510444 -0.7699706 45 4
2.7292535 5.6709747 0.99680054 50 12
2.7304204 5.670866 -0.55065 58 5
2.7015648 5.6109352 1.2104924 44 13
2.7060182 5.6176696 -0.32678574 36 6
2.7173762 5.6387386 1.4450855 45 14
2.7182271 5.6379886 -0.10925207 30 7
2.7117267 5.6219897 1.6724888 86 15
1.5470661 3.195992 -0.95141882 6 0
2.7357922 5.6517105 0.10960111 51 8
1.7768967 3.669148 -0.94119519 5 1
2.7178857 5.6097188 0.32668105 39 9
2.0996964 4.3318481 -0.93572736 2 2
2.722775 5.6148148 0.54594356 27 10
2.5194294 5.1931739 -0.91420311 2 3
2.7224438 5.6116371 0.76582706 47 11
2.7234232 5.6111612 -0.76582706 37 4
2.7283254 5.6187654 0.98929167 36 12
2.717988 5.5949912 -0.54420048 46 5
2.7135315 5.5833378 1.2066761 41 13
2.7091217 5.5717912 -0.32469231 37 6
2.7235348 5.5989494 1.4374373 33 14
2.7212725 5.5942979 -0.10858887 26 7
2.7017457 5.5516925 1.6543714 64 15
1.5590614 3.1923077 -0.95193648 5 0
2.7248893 5.576962 0.10834454 49 8
1.7911879 3.6643622 -0.94164515 5 1
2.7181532 5.5607219 0.32437828 40 9
2.1199784 4.3350749 -0.93801707 2 2
2.7178426 5.5551648 0.54106283 29 10
2.5410142 5.1914449 -0.91545457 2 3
2.7202938 5.5552683 0.75948983 41 11
2.729126 5.5708361 -0.76168346 42 4
2.7235901 5.559536 0.98053133 32 12
2.7164562 5.542532 -0.54001695 48 5
2.7070732 5.5209494 1.1952276 43 13
2.7039266 5.5120921 -0.32176149 36 6
2.722456 5.5474229 1.4266397 32 14
2.7240436 5.5506577 -0.10792568 24 7
2.6981192 5.4954071 1.6403952 68 15
1.5727561 3.1920455 -0.95348942 6 0
2.7239206 5.5284343 0.10757664 53 8
1.8033305 3.6584015 -0.94164515 5 1
2.7242982 5.5243292 0.32280821 44 9
2.1368339 4.3311696 -0.93878025 2 2
2.7186975 5.5081253 0.53740233 32 10
2.5669601 5.2007027 -0.91858327 2 3
2.710577 5.4892588 0.75169015 45 11
2.7212064 5.5083628 -0.75437129 42 4
2.7254741 5.5145779 0.97427392 27 12
2.7181265 5.4972959 -0.53653073 56 5
2.7010033 5.4626646 1.1845423 39 13
2.6956227 5.449389 -0.31862134 31 6
2.7079933 5.4719939 1.4095433 30 14
2.7256587 5.5052729 -0.10722758 25 7
2.7001376 5.4513326 1.6300424 73 15
1.5867717 3.1937323 -0.95555997 6 0
2.7209513 5.4741244 0.10670401 44 8
1.8091472 3.6381254 -0.93804586 5 1
2.7106483 5.4486237 0.31893536 40 9
2.1441905 4.3099976 -0.93572736 2 2
2.7156413 5.4562721 0.53321886 31 10
2.5850973 5.1917114 -0.91858327 2 3
2.712018 5.4442277 0.74681538 47 11
2.7094264 5.4366474 -0.74584043 39 4
2.7253149 5.4661393 0.96739089 34 12
2.7159548 5.4449854 -0.53234726 54 5
2.6990225 5.4110398 1.1753834 37 13
2.6932242 5.3970566 -0.31610921 31 6
2.7044454 5.4171762 1.3978459 29 14
2.7180552 5.4420547 -0.10618044 25 7
2.6984248 5.4003997 1.6176192 70 15
1.5967356 3.1844406 -0.9545247 6 0
2.7194293 5.4234781 0.1059012 46 8
1.8288252 3.6457236 -0.94164515 5 1
2.7045686 5.3891459 0.31600451 40 9
2.1582122 4.2986002 -0.93496412 2 2
2.7096856 5.3946505 0.52816379 27 10
2.6129794 5.1998515 -0.92171198 2 3
2.7078323 5.3886099 0.74047816 47 11
2.7123392 5.3952312 -0.74145311 39 4
2.715975 5.4001212 0.95737904 34 12
2.7080801 5.3820772 -0.52711791 50 5
2.7029488 5.369545 1.1685143 41 13
2.6950192 5.3514733 -0.31401578 40 6
2.7049932 5.3689394 1.3879479 25 14
2.7100415 5.3789592 -0.1051333 22 7
2.6955225 5.3478193 1.6046782 61 15
1.6060972 3.1754003 -0.95348942 6 0
2.7194247 5.3742213 0.1051333 51 8
1.8421762 3.6389956 -0.94164515 5 1
2.7035172 5.3404703 0.31370175 39 9
2.1802993 4.3050523 -0.93801707 2 2
2.7050884 5.3389492 0.52363169 29 10
2.6177166 5.1642704 -0.91701895 3 3
2.7078114 5.3396997 0.73511589 40 11
2.7168262 5.3551593 -0.73730958 42 4
2.7115731 5.3448048 0.94924444 30 12
2.7034068 5.3263979 -0.52258581 48 5
2.7003419 5.3180661 1.1593555 41 13
2.6955934 5.3064194 -0.31192234 37 6
2.7095933 5.3316679 1.3807496 26 14
2.7088711 5.3302469 -0.10436539 22 7
2.6870308 5.2849941 1.5886314 70 15
1.6154165 3.1663325 -0.95245409 6 0
2.7099695 5.3117347 0.10408615 49 8
1.8560061 3.6363378 -0.94254488 5 1
2.7103336 5.3078775 0.31234103 42 9
2.1917422 4.290422 -0.93649065 2 2
2.7064826 5.2957649 0.52031976 34 10
2.634829 5.1555605 -0.91701895 3 3
2.7056215 5.2918067 0.72975373 42 11
2.7110674 5.3001695 -0.73097235 53 4
2.7104175 5.2966189 0.9423613 28 12
2.7038209 5.2814612 -0.51909959 54 5
2.6875434 5.2496657 1.1463805 40 13
2.6913254 5.254786 -0.30941018 39 6
2.70593 5.2810297 1.3699518 27 14
2.7128618 5.2922878 -0.10380692 23 7
2.6895959 5.2446399 1.5793139 73 15
1.6294415 3.1678302 -0.9545247 6 0
2.7083609 5.2631269 0.10331824 49 8
1.8651193 3.6229067 -0.94074529 5 1
2.7087276 5.2593203 0.31003824 44 9
2.2005632 4.2726583 -0.93420094 2 2
2.7039487 5.247798 0.51648492 36 10
2.641947 5.1252623 -0.91326451 3 3
2.7049716 5.2452788 0.72463518 48 11
2.7031589 5.2395129 -0.72390395 50 4
2.7125807 5.2555299 0.93672973 37 12
2.7085295 5.2454352 -0.51648492 58 5
2.6860363 5.2018743 1.1379849 35 13
2.6821535 5.1921248 -0.30627003 31 6
2.7028739 5.2300034 1.3591542 27 14
2.7111154 5.2437062 -0.10303901 23 7
2.6865873 5.1940374 1.5668906 73 15
1.6446003 3.1686957 -0.95659518 6 0
2.7082939 5.218143 0.10262015 51 8
1.8759592 3.6129146 -0.93984544 5 1
2.6930029 5.1842546 0.30616537 39 9
2.2198288 4.271533 -0.93572736 2 2
2.7047875 5.2024951 0.5129987 34 10
2.6643591 5.1225553 -0.91451597 3 3
2.6966996 5.1847334 0.71756679 44 11
2.6976044 5.1842628 -0.71756679 48 4
2.7108438 5.2074804 0.92984658 35 12
2.6982932 5.181169 -0.51108128 56 5
2.6869407 5.1571732 1.1303525 38 13
2.6790085 5.1397533 -0.30375794 39 6
2.6967971 5.1716795 1.3465569 27 14
2.7016666 5.1810174 -0.10199186 22 7
2.6886144 5.1537986 1.5575731 68 15
1.6538601 3.1595123 -0.95555997 6 0
2.7107019 5.1762953 0.10199186 53 8
1.8909966 3.6094675 -0.94074529 5 1
2.6925471 5.1394386 0.30407193 40 9
2.2401953 4.2741909 -0.93801707 2 2
2.6960959 5.1418519 0.50794363 31 10
2.6684611 5.0869837 -0.909823 6 3
2.6972365 5.1396585 0.71269196 42 11
2.7018487 5.148447 -0.7139107 52 4
2.7014542 5.1455183 0.92046052 30 12
2.692276 5.1258569 -0.50654918 50 5
2.6903162 5.1199551 1.1242466 41 13
2.6867068 5.1109257 -0.30260652 43 6
2.69398 5.1247616 1.3366592 29 14
2.6973953 5.1290789 -0.10115415 21 7
2.6805043 5.0948019 1.5425617 55 15
1.6607229 3.1471758 -0.95348942 6 0
2.7017138 5.1177616 0.10101452 53 8
1.9047751 3.6066236 -0.94164515 5 1
2.6993144 5.1110554 0.30292055 42 9
2.2488551 4.2563229 -0.93572736 2 2
2.6954434 5.0994153 0.50463176 36 10
2.6751568 5.058898 -0.90638137 10 3
2.6957014 5.0955915 0.7078172 40 11
2.7003429 5.1043653 -0.70903593 55 4
2.7000234 5.1016126 0.91420311 30 12
2.6906121 5.0816851 -0.50306296 54 5
2.6889017 5.0763063 1.1166143 40 13
2.6830678 5.0631623 -0.30030376 43 6
2.6945364 5.0848045 1.3285609 30 14
2.6956551 5.0847707 -0.10045605 23 7
2.6765671 5.0466309 1.530656 60 15
1.6729625 3.1450634 -0.9545247 6 0
2.6961234 5.0664077 0.10017681 51 8
1.918557 3.6037271 -0.94254488 5 1
2.6993551 5.0703416 0.30103645 48 9
2.2592647 4.2419114 -0.93420094 2 2
2.6973476 5.0623159 0.50184274 37 10
2.6779811 5.0238509 -0.9016884 15 3
2.6967039 5.056848 0.70367366 46 11
2.6929677 5.0498414 -0.70269871 53 4
2.7020478 5.0647454 0.90919721 33 12
2.693378 5.0463681 -0.50044823 58 5
2.6742792 5.0084801 1.1036394 36 13
2.6706698 4.9996252 -0.29705891 39 6
2.6948555 5.0449018 1.3204627 29 14
2.6974237 5.0475845 -0.099897578 25 7
2.6714268 4.9968395 1.5182326 63 15
1.6788191 3.130985 -0.95193648 5 0
2.6940055 5.0221953 0.099478714 49 8
1.9323392 3.6007798 -0.94344473 5 1
2.6915982 5.0156064 0.29831499 46 9
2.2826045 4.2516932 -0.93801707 2 2
2.6952667 5.0182376 0.49835655 36 10
2.6731205 4.9749212 -0.89449239 21 3
2.6908998 5.0059142 0.69782394 49 11
2.6843207 4.9936752 -0.69611776 50 4
2.6963754 5.0140023 0.9016884 32 12
2.6893299 4.9988093 -0.49661341 58 5
2.6741264 4.9684658 1.0967702 37 13
2.6645107 4.9485359 -0.29454678 39 6
2.6893983 4.9947572 1.3096651 29 14
2.6875925 4.9893174 -0.098920241 23 7
2.6733203 4.9607425 1.5099503 57 15
1.7022331 3.1469002 -0.95866579 6 0
2.697166 4.9841485 0.098920241 56 8
1.9418119 3.5868189 -0.94164515 5 1
2.6794496 4.9472785 0.29486081 40 9
2.3019133 4.2502036 -0.93954355 2 2
2.6927588 4.9697866 0.49452168 34 10
2.6838045 4.9511976 -0.89198941 18 3
2.6921973 4.9646068 0.69343662 49 11
2.6845422 4.9484344 -0.69124299 50 4
2.6986482 4.9723606 0.89605671 31 12
2.6856885 4.9464226 -0.49242991 58 5
2.6773291 4.931026 1.0906643 40 13
2.6654696 4.9071469 -0.29266271 40 6
2.6862273 4.9432988 1.2988673 26 14
2.6838095 4.9367957 -0.098082528 22 7
2.6711185 4.9114084 1.4980446 54 15
1.7100534 3.133857 -0.95659518 6 0
2.6953919 4.9395957 0.098222144 56 8
1.9543214 3.5800185 -0.94164515 5 1
2.6861713 4.9186139 0.29370943 42 9
2.3005311 4.2107263 -0.93267435 2 2
2.6899345 4.9214206 0.4906868 34 10
2.6791897 4.8997302 -0.8844806 18 3
2.6818907 4.9046698 0.68636823 42 11
2.6894155 4.9163923 -0.68807441 52 4
2.6894345 4.9143906 0.88729644 29 12
2.6790178 4.8933277 -0.48807216 50 5
2.6765208 4.8867426 1.0830319 41 13
2.6728811 4.8780761 -0.2915113 46 6
2.6893384 4.9060793 1.2916689 28 14
2.6818004 4.8923278 -0.09738443 23 7
2.6687384 4.8664842 1.4871743 60 15
1.7181891 3.1227903 -0.9550423 5 0
2.6951559 4.896399 0.097558953 60 8
1.9711889 3.5796599 -0.94344473 5 1
2.6906898 4.8842435 0.29224399 44 9
2.3095329 4.1923528 -0.93038476 2 2
2.684016 4.8701229 0.48650333 38 10
2.6705265 4.8436413 -0.87603313 16 3
2.6845105 4.8669953 0.68246841 42 11
2.6863165 4.8682656 -0.68271214 52 4
2.6902459 4.8733711 0.88166475 30 12
2.6797144 4.8542933 -0.48510888 58 5
2.6764801 4.8464346 1.0761628 41 13
2.6705747 4.8337531 -0.28941786 43 6
2.6913657 4.8693719 1.2844704 29 14
2.6861677 4.8579645 -0.096895754 24 7
2.6697242 4.8262424 1.4778568 60 15
1.7300159 3.1184638 -0.95555997 6 0
2.6860318 4.8397517 0.096616521 56 8
1.989349 3.5829792 -0.94614416 5 1
2.6902649 4.8433943 0.29035991 48 9
2.3413112 4.2151585 -0.93725383 2 2
2.6835816 4.8293762 0.48336574 38 10
2.6701403 4.8032126 -0.87040144 16 3
2.6908689 4.8385115 0.67978722 46 11
2.6801322 4.8172264 -0.67686242 52 4
2.6918685 4.8363342 0.8766588 31 12
2.685014 4.824019 -0.48301712 58 5
2.6628168 4.7821746 1.063951 37 13
2.66119 4.7772908 -0.28659174 35 6
2.6874759 4.8224988 1.2745727 27 14
2.6855805 4.8171206 -0.096267477 26 7
2.6658537 4.7797756 1.4664688 63 15
1.7446638 3.1191494 -0.95763052 6 0
2.6833787 4.7954459 0.095918424 51 8
1.9866126 3.5488069 -0.93894571 5 1
2.6848474 4.7961063 0.28805712 48 9
2.3540936 4.2035341 -0.93649065 2 2
2.6828928 4.788692 0.48022813 38 10
2.6714363 4.7662926 -0.86539555 16 3
2.6844428 4.7875338 0.6739375 51 11
2.6784801 4.7749462 -0.67223138 48 4
2.6943631 4.8032608 0.87227869 31 12
2.6823349 4.7798681 -0.4795309 60 5
2.6641173 4.7454586 1.0578451 38 13
2.6524222 4.7226954 -0.28387025 37 6
2.6852007 4.7791104 1.2655747 26 14
2.6819482 4.7733216 -0.09556938 25 7
2.6627588 4.737227 1.4561161 57 15
1.7564878 3.1147242 -0.95814812 5 0
2.6864958 4.7638779 0.095464662 56 8
2.0079463 3.5591717 -0.94344473 5 1
2.674087 4.7380028 0.28512633 46 9
2.3784018 4.212388 -0.94030684 2 2
2.6819553 4.7480717 0.47709054 34 10
2.6697414 4.7264481 -0.85976392 16 3
2.6807711 4.744041 0.66906273 49 11
2.6747584 4.7314777 -0.66735661 50 4
2.6858294 4.7491217 0.86414409 29 12
2.6754584 4.7288575 -0.47534743 58 5
2.6682374 4.716094 1.0532657 42 13
2.6651139 4.7086611 -0.28355622 41 6
2.6760705 4.726089 1.2538772 29 14
2.6769118 4.7256513 -0.094801471 23 7
2.661181 4.6959696 1.4462808 55 15
1.7620354 3.1004841 -0.95555997 6 0
2.6863079 4.7249179 0.094871283 63 8
2.016505 3.5453649 -0.94164515 5 1
2.6678903 4.688714 0.28271887 40 9
2.3884747 4.1976514 -0.93878025 2 2
2.6760008 4.7010589 0.47325566 36 10
2.6686292 4.6862006 -0.85413224 16 3
2.6727476 4.6915345 0.66296923 44 11
2.6784811 4.6996908 -0.66418797 52 4
2.6828237 4.7053957 0.85788667 28 12
2.6644816 4.6732259 -0.47064099 54 5
2.6710644 4.6828771 1.0479231 42 13
2.6597581 4.6611648 -0.28125346 41 6
2.6790268 4.6930246 1.2475786 30 14
2.6715734 4.6780767 -0.094033569 23 7
2.6612644 4.6581368 1.437481 58 15
1.769967 3.0892854 -0.95400703 5 0
2.6868753 4.6877527 0.094312809 63 8
2.0424368 3.5619731 -0.94794375 5 1
2.6772854 4.6672444 0.28198618 46 9
2.4050677 4.1926942 -0.93954355 2 2
2.6745453 4.660583 0.47011805 40 10
2.6652975 4.6425962 -0.84787488 15 3
2.6713135 4.6511903 0.65858197 42 11
2.6790478 4.6627722 -0.66028816 53 4
2.6795406 4.6617513 0.85162932 29 12
2.6668744 4.6397152 -0.46820062 56 5
2.6658652 4.6360817 1.0395275 42 13
2.6620712 4.627614 -0.27978805 45 6
2.6759489 4.6498661 1.2385805 30 14
2.6759152 4.6479259 -0.093614712 25 7
2.6562972 4.611989 1.426093 63 15
1.7855687 3.0914538 -0.95659518 6 0
2.6772099 4.6333284 0.093405277 63 8
2.0529084 3.5514469 -0.9470439 5 1
2.675565 4.6267481 0.28010207 48 9
2.4295175 4.2012682 -0.94335973 2 2
2.672838 4.6201773 0.46698046 41 10
2.6577406 4.5922308 -0.84036607 15 3
2.6765931 4.6229396 0.6559009 46 11
2.6734178 4.6156025 -0.65492588 53 4
2.6858947 4.6352777 0.84850067 30 12
2.6708755 4.6074991 -0.46593457 60 5
2.6524954 4.5757918 1.0280789 38 13
2.6581683 4.5837393 -0.27769461 42 6
2.6784742 4.6168976 1.2322818 31 14
2.6720488 4.6039662 -0.092916615 25 7
2.6568589 4.5759587 1.4178108 63 15
1.8027238 3.0949032 -0.95970106 6 0
2.6742444 4.5911236 0.092742085 56 8
2.0574431 3.5307901 -0.94344473 5 1
2.6715786 4.5828733 0.27800864 50 9
2.452811 4.2059031 -0.94641262 2 2
2.6696727 4.5759315 0.46349424 40 10
2.6586215 4.5551629 -0.83536011 15 3
2.6686957 4.5724235 0.65005112 49 11
2.6664925 4.5668135 -0.64931989 50 4
2.6821327 4.5917587 0.84224325 31 12
2.6708558 4.5706263 -0.46314558 60 5
2.6553762 4.5423112 1.0227362 36 13
2.6436954 4.5205188 -0.2744498 37 6
2.6815999 4.5835018 1.2259833 29 14
2.6739631 4.5704489 -0.092427947 26 7
2.6533003 4.5333104 1.4074581 58 15
1.8135141 3.0885928 -0.95970106 6 0
2.6748476 4.5537033 0.092183605 54 8
2.0743203 3.5299451 -0.94524431 5 1
2.6632757 4.5321922 0.27549651 48 9
2.4615068 4.1871614 -0.94412297 2 2
2.6735103 4.5459752 0.46140248 38 10
2.6584799 4.5186129 -0.83035421 15 3
2.6673129 4.531817 0.64566386 49 11
2.6650825 4.5262198 -0.64493263 48 4
2.6801026 4.5517292 0.83661157 30 12
2.6726382 4.537241 -0.46070525 62 5
2.655267 4.5059519 1.0166303 41 13
2.6462724 4.4888968 -0.27308905 41 6
2.667886 4.5237556 1.2124861 27 14
2.6675537 4.5231919 -0.091660038 25 7
2.6534009 4.4974003 1.3991758 58 15
1.8262528 3.085568 -0.96073633 6 0
2.6766918 4.5224376 0.091729842 60 8
2.0939586 3.5364616 -0.9488436 5 1
2.6607566 4.4919367 0.27361241 48 9
2.4821117 4.1886778 -0.94641262 2 2
2.6629477 4.492054 0.45687038 37 10
2.6512897 4.4723887 -0.82347113 13 3
2.6661246 4.4956288 0.64176404 48 11
2.666909 4.4951634 -0.64176404 52 4
2.6717787 4.5015764 0.82910275 30 12
2.6599772 4.4799156 -0.45582449 59 5
2.6581662 4.4768658 1.012051 42 13
2.6468623 4.4560561 -0.27162364 45 6
2.6709278 4.4947796 1.2070874 29 14
2.6547139 4.465724 -0.0906827 23 7
2.6493335 4.4549026 1.388823 57 15
1.830539 3.0695393 -0.95763052 6 0
2.6760709 4.48559 0.091171376 67 8
2.1042922 3.5257843 -0.94794375 5 1
2.664135 4.4620428 0.27235636 42 9
2.5010219 4.1888518 -0.94832075 3 2
2.6573946 4.4489894 0.45338416 38 10
2.6526988 4.4393668 -0.8190909 15 3
2.6655054 4.4590321 0.63786417 46 11
2.6683211 4.4619741 -0.63835168 53 4
2.6671922 4.4583197 0.8228454 28 12
2.6500206 4.4278631 -0.45146674 54 5
2.6556304 4.4372358 1.0051818 43 13
2.6521425 4.4296532 -0.27057692 46 6
2.6685765 4.455337 1.1989892 29 14
2.6600089 4.4392757 -0.090333655 25 7
2.646991 4.415802 1.3795056 60 15
1.8387897 3.0578434 -0.95607764 5 0
2.6690397 4.43852 0.090403467 67 8
2.1185949 3.5217578 -0.9488436 5 1
2.6693945 4.4356036 0.27130961 46 9
2.5173697 4.1813393 -0.94870234 2 2
2.6613467 4.4187393 0.45129246 41 10
2.6628363 4.4194627 -0.81721377 26 3
2.6626148 4.419095 0.63347691 46 11
2.6674826 4.4254313 -0.63445187 53 4
2.6745772 4.4354501 0.82034248 28 12
2.6603162 4.4100547 -0.45059517 58 5
2.6455009 4.38377 0.99525976 42 13
2.6477144 4.3857074 -0.26848349 46 6
2.6687696 4.4188356 1.1917907 28 14
2.6651518 4.4128456 -0.089984603 25 7
2.6444051 4.3767729 1.370188 60 15
1.8564626 3.0629702 -0.95970106 6 0
