# .PCD v0.7 - Point Cloud Data file format
VERSION 0.7
FIELDS x y z intensity ring
SIZE 4 4 4 4 2
TYPE F F F F U
COUNT 1 1 1 1 1
WIDTH 1337
HEIGHT 1
VIEWPOINT 0 0 0 1 0 0 0
POINTS 1337
DATA ascii
2.8750963 11.446239 -0.61850643 11 6
2.7102866 10.782141 2.5666916 90 14
3.1557896 12.545194 -0.22579923 6 7
2.662704 10.577229 2.9225848 1 15
0.86486238 3.4179051 -0.94468951 5 0
2.8971627 11.441086 0.20600821 13 8
0.99617356 3.9310718 -0.93624628 5 1
2.8917296 11.402904 0.6165176 13 9
1.1707801 4.6167154 -0.92580527 2 2
2.890095 11.388116 1.0279148 16 10
1.3809361 5.4374537 -0.8885479 2 3
2.8976505 11.401196 1.4443955 18 11
1.7111107 6.7276769 -0.85235429 1 4
2.269979 8.918498 -0.80514479 1 5
2.7432656 10.770103 2.1603396 93 13
2.8962848 11.36259 -0.61452883 21 6
2.7503126 10.782056 2.5689409 91 14
2.9082453 11.392875 -0.20524029 7 7
2.7091699 10.605306 2.9329376 2 15
0.87582791 3.4111228 -0.9436543 5 0
1.0060064 3.9124722 -0.93264711 5 1
2.9190757 11.344383 0.61390084 38 9
1.1800404 4.5859818 -0.92046267 2 2
1.3939917 5.4096456 -0.8847934 2 3
2.9190931 11.319889 1.4353772 21 11
1.7335939 6.7178178 -0.85186678 1 4
2.9275017 11.336153 1.8543743 51 12
2.2971091 8.8950863 -0.80375022 1 5
2.7572627 10.669224 2.1420219 18 13
2.9359331 11.35241 -0.61452883 47 6
2.7654705 10.685608 2.5482454 28 14
2.9374654 11.342003 -0.20450729 12 7
2.7209723 10.498541 2.9060204 2 15
0.88772887 3.4080451 -0.9436543 5 0
2.951746 11.323829 0.20426297 31 8
1.020642 3.9127076 -0.93354684 5 1
2.9526017 11.310935 0.61264473 30 9
1.1950485 4.5780358 -0.91969937 2 2
2.9493864 11.290555 1.0209423 37 10
1.4078718 5.3856349 -0.88166475 2 3
2.9510508 11.280823 1.4317211 28 11
1.7650752 6.7424521 -0.85576659 1 4
2.9585471 11.293379 1.8490556 73 12
2.9774635 11.365586 -1.0279148 1 5
2.7471893 10.479122 2.1057682 15 13
2.9659104 11.305388 -0.61254007 30 6
2.756736 10.500595 2.5064046 26 14
2.9709442 11.30847 -0.20408843 15 7
2.7364786 10.408639 2.8837619 6 15
0.90120244 3.4085035 -0.94468951 5 0
2.9870951 11.289735 0.2038441 32 8
1.0379678 3.9202437 -0.93624628 5 1
2.9904606 11.286522 0.61191207 29 9
1.2218776 4.6115799 -0.92733175 2 2
2.9887085 11.271964 1.0202451 39 10
1.4316534 5.3957138 -0.88416773 2 3
2.9867764 11.248826 1.4290401 33 11
1.7826407 6.7090783 -0.85235429 1 4
2.9983943 11.276733 1.8481169 65 12
3.016026 11.343045 -1.0268689 1 5
2.7729609 10.42155 2.0962276 14 13
3.001163 11.27128 -0.61128402 32 6
2.7480383 10.313416 2.464114 25 14
3.0046411 11.268522 -0.20356487 16 7
0.91659492 3.4183991 -0.94831306 6 0
3.0259645 11.277309 0.2038092 43 8
1.0496254 3.9090683 -0.93444669 3 1
3.0225811 11.249011 0.61044663 31 9
1.232872 4.5883274 -0.92351556 2 2
3.0275173 11.25954 1.0200708 43 10
1.4504807 5.3906832 -0.88416773 2 3
3.0239625 11.230663 1.4280651 36 11
1.8101791 6.7181487 -0.85430413 1 4
3.0356853 11.258568 1.8468655 69 12
3.0504184 11.31321 -1.0251257 1 5
2.8123934 10.42318 2.0985174 14 13
3.0363214 11.245311 -0.61044663 32 6
2.7342103 10.119394 2.4200234 23 14
3.0423946 11.252174 -0.20346016 17 7
2.7306662 10.092288 2.8014574 34 15
0.93054998 3.4226353 -0.95038354 6 0
3.0605898 11.249311 0.20349507 90 8
1.0612158 3.8978596 -0.93264711 3 1
3.0628767 11.242247 0.61065596 43 9
1.2416549 4.5574775 -0.91817296 2 2
3.0647085 11.241213 1.0193735 43 10
1.4755267 5.4084558 -0.88792211 2 3
3.0641842 11.223872 1.4285525 35 11
1.8262966 6.6849794 -0.85089183 1 4
3.0697603 11.228848 1.8437368 76 12
3.0951476 11.321711 -1.0268689 1 5
2.8497891 10.417089 2.0992808 14 13
3.0787237 11.246202 -0.61107469 42 6
2.7231808 9.9406338 2.3795321 26 14
3.076359 11.222202 -0.20311111 19 7
2.7203965 9.9168854 2.7553878 26 15
0.93684572 3.3988795 -0.94468951 5 0
3.1078062 11.267477 0.20401864 36 8
1.081038 3.9166729 -0.93804586 5 1
3.1036992 11.237263 0.61097002 29 9
1.2565118 4.5493302 -0.91740966 2 2
3.1023288 11.224688 1.0188506 19 10
1.4912387 5.3918486 -0.88604486 2 3
3.1049359 11.218847 1.4292837 18 11
1.8549141 6.6976962 -0.85332924 1 4
3.1136835 11.235197 1.8465527 22 12
2.455677 8.8608932 -0.80444747 1 5
2.8850873 10.403293 2.0985174 15 13
2.7151039 9.7770987 2.3426404 28 14
3.1197994 11.226808 -0.20339034 18 7
2.7073829 9.7360945 2.7077651 27 15
0.95078301 3.4030316 -0.94676012 5 0
1.0947044 3.9128754 -0.93804586 5 1
3.1457925 11.244218 0.61191207 3 9
1.2745004 4.5524788 -0.91893619 2 2
3.1447194 11.225301 1.0198965 4 10
1.5100522 5.3866096 -0.88604486 2 3
3.145684 11.213674 1.430015 3 11
1.8836489 6.7102919 -0.85576659 1 4
3.1594632 11.25524 1.8515586 7 12
2.48875 8.8599396 -0.80514479 1 5
2.9171319 10.378039 2.0954645 15 13
3.1685133 11.264811 -0.61327279 3 6
2.7090912 9.6249952 2.3084476 28 14
2.6967013 9.5745859 2.6653185 26 15
0.96370947 3.403409 -0.94779539 5 0
3.1920624 11.272997 0.20450729 4 8
1.1002355 3.8829749 -0.93174726 5 1
3.200815 11.288895 0.61494756 3 9
1.2925284 4.5555568 -0.92046267 2 2
3.1904171 11.237254 1.0219883 3 10
1.5257474 5.3739719 -0.8847934 2 3
3.1915305 11.233735 1.4339148 2 11
1.9048067 6.7001886 -0.85527909 1 4
3.2046807 11.265042 1.8550001 5 12
2.5207465 8.855032 -0.80549335 1 5
2.9536786 10.375862 2.0969911 15 13
3.2146091 11.284975 -0.61494756 2 6
2.6998589 9.4716549 2.2738054 28 14
3.2071104 11.243773 -0.20408843 1 7
2.68557 9.4090691 2.6218369 26 15
0.97179461 3.3890526 -0.94468951 5 0
3.2451787 11.309839 0.20537992 2 8
1.1159332 3.8866031 -0.93354684 5 1
3.2429616 11.287249 0.61547089 3 9
1.3108802 4.5625672 -0.92275238 2 2
3.2441816 11.284056 1.0272175 2 10
1.549957 5.3875971 -0.88792211 2 3
3.2417102 11.260677 1.4387896 1 11
1.925987 6.6858687 -0.85430413 1 4
3.2565653 11.297444 1.8621961 4 12
2.5512033 8.8504524 -0.80584198 1 5
2.989882 10.365488 2.0969911 15 13
3.2744772 11.344683 -0.61882037 1 6
2.6826138 9.2880583 2.2319643 28 14
3.256336 11.267089 -0.20471673 0 7
2.6808314 9.2697315 2.5856025 27 15
0.98685187 3.3967707 -0.94779539 5 0
3.3013823 11.35605 0.20642707 1 8
1.1284057 3.8789418 -0.93264711 5 1
3.3024354 11.344897 0.61923909 1 9
1.3289924 4.5655041 -0.92427886 2 2
6.5275249 22.409515 2.0420589 2 10
1.5687551 5.3821535 -0.88792211 2 3
3.2932234 11.291218 1.4441519 0 11
1.9515332 6.6867285 -0.85527909 1 4
3.8824165 13.29405 2.1935244 0 12
2.5899034 8.8682671 -0.80828232 1 5
3.0249474 10.351218 2.0962276 15 13
2.6750703 9.1421032 2.1991215 28 14
2.6729748 9.123126 2.547297 28 15
0.99434024 3.378479 -0.9436543 5 0
7.7711983 26.387272 0.48015061 8 8
1.1485482 3.8974104 -0.93804586 3 1
7.7833567 26.394558 1.4421698 4 9
1.3482537 4.5721354 -0.92656857 2 2
6.6000767 22.367483 2.0403159 4 10
1.581938 5.3577003 -0.8847934 2 3
1.9748642 6.6798749 -0.85527909 1 4
4.8287582 16.322546 2.695992 1 12
2.614059 8.8362465 -0.80619055 1 5
2.670413 9.0093956 2.1694279 29 14
2.660831 8.9655809 2.5058861 27 15
1.0039206 3.3675821 -0.94158375 5 0
7.8724003 26.390646 0.48070908 8 8
1.1588006 3.8821735 -0.93534642 5 1
7.8805947 26.384449 1.4431118 9 9
1.3597115 4.5523515 -0.92351556 2 2
6.6912313 22.388216 2.0443251 7 10
1.6006317 5.3521452 -0.8847934 2 3
2.0027235 6.6881552 -0.85722905 1 4
4.8925138 16.328297 2.6997464 1 12
2.6494648 8.8423357 -0.80758512 1 5
3.0892451 10.303521 2.0908849 1 13
2.6637464 8.8731003 2.1388347 29 14
2.6476202 8.8082323 2.4644749 26 15
1.0201356 3.3788526 -0.94572484 5 0
7.9760466 26.401291 0.4814072 8 8
1.1723459 3.8781047 -0.93534642 5 1
7.9790015 26.37781 1.4442631 9 9
1.3755931 4.5475779 -0.92351556 2 2
6.7774267 22.391417 2.0467653 7 10
1.6273198 5.3729944 -0.88917363 2 3
2.0272112 6.6849222 -0.8577165 1 4
4.9471822 16.303558 2.6984947 1 12
2.6803124 8.8330345 -0.80758512 1 5
3.1297531 10.307704 2.0939381 1 13
2.6516225 8.7220488 2.1046422 28 14
2.6445992 8.6880484 2.4334168 37 15
1.0330528 3.3789663 -0.94676012 5 0
8.0728292 26.388584 0.48168641 8 8
1.1813118 3.8590822 -0.93174726 5 1
8.0704508 26.347887 1.4441586 9 9
1.3949096 4.5540109 -0.92580527 2 2
6.8666449 22.403814 2.0500774 4 10
1.6506975 5.3823895 -0.89167655 2 3
2.0470393 6.666419 -0.8562541 1 4
5.0133419 16.316404 2.7035007 1 12
2.7122977 8.8274345 -0.80793375 1 5
3.1622562 10.285457 2.0916483 1 13
2.6430633 8.5860901 2.0740488 30 14
2.6436169 8.5772257 2.4049468 37 15
1.043698 3.371649 -0.94572484 5 0
8.0797024 26.08518 0.47666013 12 8
1.1982379 3.8661032 -0.93444669 5 1
8.1595478 26.326704 1.4444724 9 9
1.4096315 4.5453649 -0.92504203 2 2
6.9560218 22.415865 2.0533893 7 10
1.6659619 5.3652749 -0.88979936 2 3
2.0679381 6.65165 -0.85527909 1 4
5.0650802 16.292143 2.7022493 1 12
2.7430971 8.8179121 -0.80793375 1 5
3.2051392 10.296849 2.0962276 1 13
2.6562054 8.5228577 2.0610015 23 14
2.6306345 8.435626 2.3676767 35 15
1.0543064 3.3642979 -0.94468951 5 0
8.1745262 26.084961 0.4771488 8 8
1.2145513 3.873265 -0.93714613 5 1
8.2585649 26.32093 1.4457285 4 9
1.4290189 4.5516548 -0.92733175 2 2
7.0372167 22.400949 2.054261 4 10
1.6790099 5.3446436 -0.88729644 2 3
2.0911744 6.6485443 -0.85576659 1 4
5.1254821 16.285669 2.7041266 1 12
2.7810404 8.831089 -0.81002545 1 5
3.2262919 10.244968 2.0878322 1 13
2.6844561 8.5140018 2.0610015 23 14
2.6205161 8.3011198 2.3324773 35 15
1.0654579 3.3607829 -0.94468951 5 0
8.2727928 26.079138 0.47756767 8 8
1.2268822 3.8652875 -0.93624628 5 1
8.3643045 26.335722 1.4481361 9 9
1.4369748 4.5244374 -0.92275238 2 2
7.1162848 22.392681 2.0556552 4 10
1.6952578 5.3312216 -0.88604486 2 3
5.5439463 17.42396 2.2450771 1 11
2.120393 6.6601186 -0.85820401 1 4
5.1894827 16.290268 2.707881 1 12
2.8030512 8.7990379 -0.80793375 1 5
3.265614 10.244866 2.0901217 1 13
2.7141535 8.5045815 2.0610015 23 14
2.6130235 8.1778288 2.3003838 38 15
1.0807251 3.3680799 -0.94779539 5 0
8.4493513 26.316658 0.48245433 8 8
1.2355999 3.8461385 -0.93264711 5 1
8.4659681 26.336786 1.4498109 9 9
1.4575667 4.5343456 -0.92580527 2 2
7.204164 22.398056 2.0584443 4 10
1.7150687 5.3290319 -0.88667065 2 3
5.5840497 17.340256 2.2367899 1 11
2.1418006 6.6470089 -0.85747278 2 4
5.2608666 16.317175 2.71539 2 12
2.8288593 8.7740288 -0.80653924 1 5
3.3025634 10.237141 2.0908849 1 13
2.7414296 8.4876366 2.059202 24 14
2.6058874 8.0583715 2.2693255 36 15
1.0936662 3.3679624 -0.94883066 5 0
8.5547638 26.328842 0.48322225 4 8
1.2586572 3.871454 -0.93984544 5 1
8.5541239 26.295683 1.4491827 9 9
1.4733826 4.5292311 -0.92580527 2 2
7.2853928 22.38224 2.0593157 7 10
1.734885 5.3267689 -0.88729644 2 3
5.6605244 17.369734 2.2431273 1 11
2.1625302 6.6319423 -0.85649782 2 4
5.3128943 16.283686 2.7128868 2 12
2.8755398 8.8133469 -0.81107134 1 5
3.4107754 10.447644 2.1362975 2 13
2.7710426 8.4780149 2.059202 24 14
2.6039615 7.9574227 2.2434435 43 15
1.1005924 3.3494415 -0.94468951 5 0
1.2648567 3.8448231 -0.93444669 5 1
8.6589823 26.305504 1.451381 4 9
1.4830464 4.5054116 -0.92198914 2 2
7.3709407 22.379387 2.0614076 7 10
1.7571771 5.3319383 -0.88917363 2 3
5.7012334 17.289541 2.2353277 1 11
2.1856654 6.6243539 -0.85649782 2 4
5.3758922 16.2838 2.7160156 1 12
2.9050353 8.7994719 -0.81072265 1 5
3.4897168 10.564302 2.1626294 2 13
2.7969463 8.4571896 2.0565026 26 14
7.418654 22.418825 -0.41219094 2 7
2.5952904 7.8382473 2.2123852 38 15
1.1134956 3.349246 -0.94572484 5 0
7.4595385 22.424221 0.41250509 5 8
1.2807329 3.84778 -0.93624628 5 1
7.4563737 22.388613 1.2366987 6 9
1.5074482 4.5262852 -0.92733175 2 2
7.457839 22.379982 2.0638478 7 10
1.7770292 5.3295188 -0.88979936 2 3
5.7678294 17.288368 2.2377651 1 11
2.2125454 6.6279826 -0.85796028 2 4
5.4389629 16.283669 2.7191441 2 12
2.9322135 8.7736492 -0.8093282 1 5
3.4979436 10.466404 2.1450748 2 13
2.8264525 8.4473734 2.0565026 25 14
2.5870397 7.7228975 2.1823623 43 15
1.1257646 3.3451419 -0.94572484 5 0
7.5428767 22.413206 0.41278431 8 8
1.2916679 3.8358989 -0.93444669 5 1
7.5408626 22.381376 1.2377455 6 9
1.5252832 4.5244498 -0.92809504 2 2
7.5404582 22.354385 2.0640223 4 10
1.7940232 5.315484 -0.8885479 2 3
5.8091016 17.2117 2.2304528 1 11
2.2394805 6.6315026 -0.85942268 2 4
5.5046201 16.290787 2.7235246 2 12
2.9462323 8.7142859 -0.8047961 1 5
3.4947619 10.33077 2.1198881 2 13
2.856143 8.4332676 2.0556028 26 14
7.4479775 21.99147 -0.40527982 1 7
2.5780232 7.6076999 2.1523392 43 15
1.1386789 3.3448498 -0.94676012 5 0
7.633996 22.411909 0.41327298 8 8
1.3057195 3.8311388 -0.93444669 5 1
7.6311893 22.390833 1.2397343 9 9
1.5359969 4.5042329 -0.92504203 2 2
7.6184387 22.327929 2.0640223 4 10
1.8163974 5.3204055 -0.89042509 2 3
5.8605928 17.156481 2.2260656 1 11
2.2676215 6.6345205 -0.86088508 2 4
5.571671 16.301382 2.7285304 1 12
2.9779246 8.7077188 -0.80514479 1 5
3.570843 10.435533 2.14393 2 13
2.8855655 8.4232454 2.0556028 26 14
7.5311823 21.984253 -0.40562883 3 7
2.5732419 7.5072808 2.1264575 43 15
1.1528643 3.3481607 -0.94883066 5 0
7.7199998 22.420504 0.41390127 8 8
1.3209532 3.8341584 -0.93624628 5 1
7.7171078 22.386719 1.2409904 10 9
1.5555522 4.5099792 -0.92733175 2 2
7.7151866 22.355816 2.0690773 7 10
1.830163 5.3031492 -0.8885479 2 3
5.9032035 17.095671 2.2207034 1 11
2.2824812 6.6063251 -0.85820401 1 4
4.487474 12.981031 2.1753781 0 12
3.4655273 10.019156 2.0607371 2 13
2.912205 8.4099474 2.054703 26 14
7.6262016 22.010738 -0.40660617 1 7
2.5690606 7.4106393 2.1016109 47 15
1.1614203 3.3370218 -0.94676012 5 0
4.5113611 12.954871 0.23944701 2 8
1.3368946 3.8368845 -0.93804586 5 1
4.5074654 12.936415 0.71794468 2 9
1.5666208 4.4936733 -0.92504203 2 2
4.5127916 12.937166 1.19874 2 10
1.8460584 5.2892685 -0.88729644 2 3
4.5112333 12.918199 1.6800909 2 11
2.3055263 6.5983181 -0.85820401 1 4
4.512249 12.913865 2.1666176 3 12
3.5024223 10.012558 2.0618823 2 13
2.9267278 8.3574295 2.0443552 11 14
4.5372682 12.956415 -0.23962153 0 7
2.5616817 7.3109193 2.0757289 47 15
1.1717781 3.329303 -0.94572484 5 0
4.5091491 12.811575 0.2370735 2 8
1.3444337 3.8177252 -0.93444669 5 1
4.4994988 12.769901 0.70957094 2 9
1.5836015 4.4918809 -0.92580527 2 2
4.4942999 12.740957 1.1820061 2 10
1.8675324 5.2942948 -0.88917363 2 3
4.5025187 12.757158 1.6610793 2 11
2.3373082 6.6187143 -0.8618601 2 4
4.5099196 12.763932 2.1440909 3 12
3.5323365 9.9916334 2.059974 2 13
4.4664688 12.626943 -0.70192993 1 6
2.968082 8.3862562 2.053803 2 14
4.5143843 12.748228 -0.23606126 0 7
2.5536315 7.2072463 2.0488117 45 15
1.1879922 3.3399594 -0.94986594 5 0
4.4935031 12.626201 0.23393205 2 8
1.3642881 3.8313675 -0.93894571 5 1
4.4975991 12.630731 0.70266259 2 9
1.6024432 4.4977012 -0.92809504 2 2
4.4856791 12.583355 1.1687585 2 10
1.8886548 5.295186 -0.89042509 2 3
4.4869699 12.573099 1.6391429 2 11
2.353724 6.5918198 -0.85942268 2 4
4.4990778 12.60008 2.1190615 3 12
3.5579386 9.9533615 2.0546315 2 13
4.4432607 12.423216 -0.69146276 1 6
2.9999661 8.3831825 2.0556028 3 14
4.5081267 12.597627 -0.2335481 0 7
2.548866 7.1187115 2.0260355 47 15
1.1970295 3.3285205 -0.94779539 5 0
4.4852753 12.471982 0.2313491 2 8
1.3756672 3.8231544 -0.93804586 5 1
4.4915943 12.475896 0.6949169 2 9
1.6141424 4.4809971 -0.92580527 2 2
4.4741836 12.41392 1.154465 2 10
1.9008468 5.2740259 -0.88792211 2 3
4.4734173 12.405025 1.6191562 2 11
2.3796144 6.5951805 -0.86088508 2 4
4.4954128 12.452379 2.0968478 3 12
3.596926 9.9581261 2.0580659 2 13
4.4423475 12.291952 -0.68497306 1 6
3.034374 8.3915148 2.0601017 3 14
4.4989991 12.435145 -0.23082553 0 7
2.5658104 7.0879722 2.019824 40 15
1.2106992 3.3317959 -0.94986594 5 0
4.4782119 12.317183 0.22876614 2 8
1.3823415 3.8000162 -0.93354684 5 1
4.4654427 12.268704 0.68424034 2 9
1.6289921 4.4756198 -0.92580527 2 2
4.4621391 12.252993 1.1408687 2 10
1.931417 5.3007679 -0.89355379 2 3
4.4704609 12.262512 1.602582 2 11
2.3999021 6.5793738 -0.85991013 2 4
4.4846706 12.288158 2.0718184 3 12
3.6357076 9.9565744 2.0603557 2 13
4.4290285 12.12254 -0.67638999 1 6
3.0489261 8.3406067 2.0502038 3 14
4.484683 12.261609 -0.22789353 0 7
2.5918663 7.0826001 2.0208592 36 15
1.2209026 3.3218966 -0.94831306 4 0
4.4659958 12.151319 0.22597377 2 8
1.4023244 3.8134573 -0.93804586 5 1
4.4613423 12.125584 0.67712265 2 9
1.648097 4.4769888 -0.92733175 2 2
4.4560699 12.098203 1.1279696 2 10
1.9535632 5.3010674 -0.89480525 2 3
4.46244 12.108999 1.5845454 2 11
2.42697 6.5821338 -0.86137259 2 4
4.478313 12.138992 2.0492916 3 12
3.6721737 9.9431829 2.0603557 2 13
4.4166617 11.952603 -0.66780686 1 6
3.0835323 8.3403416 2.0529034 2 14
4.5011096 12.174605 -0.22656713 0 7
2.6138875 7.0662637 2.0187886 36 15
1.2277824 3.3049376 -0.94468951 5 0
4.4603372 11.999912 0.22346061 2 8
1.4135741 3.8009861 -0.93624628 5 1
4.4549112 11.978895 0.66979563 2 9
1.6664546 4.4785686 -0.92885822 2 2
4.4565568 11.970547 1.1175109 2 10
1.9624037 5.2683001 -0.89042509 2 3
4.4513354 11.943753 1.5650463 2 11
2.4559317 6.5862145 -0.86307877 1 4
4.4654365 11.975219 2.0242622 2 12
3.7075486 9.9321423 2.0607371 2 13
4.4164209 11.824856 -0.66152656 1 6
3.1153536 8.3368292 2.054703 2 14
4.459579 11.934038 -0.22237857 0 7
2.6331267 7.0426202 2.0146475 36 15
1.243385 3.3114834 -0.94779539 5 0
4.4382515 11.820311 0.22038898 2 8
1.4275408 3.7999268 -0.93714613 5 1
4.4383759 11.808098 0.6611079 2 9
1.6793121 4.465374 -0.92733175 2 2
4.4393783 11.798277 1.1028687 2 10
1.9742966 5.246973 -0.88792211 2 3
4.4461584 11.810025 1.5494469 2 11
2.4812596 6.5873222 -0.86429745 2 4
4.461236 11.837559 2.0036128 3 12
3.7328477 9.8995848 2.0565395 2 13
4.4133124 11.698023 -0.65524626 1 6
3.1471102 8.3373928 2.0574024 2 14
4.4658866 11.824862 -0.22063331 0 7
2.656327 7.0297718 2.0136123 35 15
1.2543589 3.3073423 -0.94779539 5 0
4.4411783 11.703787 0.21850413 2 8
1.4394139 3.7912762 -0.93624628 5 1
4.4348764 11.67491 0.65451354 2 9
1.7038699 4.4854751 -0.93267435 2 2
4.44309 11.690369 1.0941532 2 10
1.9954101 5.2474351 -0.88917363 2 3
4.4421711 11.675694 1.5338477 2 11
2.5000029 6.5674882 -0.86283505 2 4
4.4547229 11.696383 1.9823378 3 12
3.7624807 9.8736553 2.0538683 2 13
4.4071622 11.559375 -0.6483379 1 6
3.1803629 8.3372793 2.0601017 2 14
4.4529424 11.667215 -0.21798056 0 7
2.6836078 7.0276756 2.0156829 42 15
1.2672795 3.306551 -0.94883066 5 0
4.4404755 11.57992 0.21647964 2 8
1.4540346 3.7898679 -0.93714613 5 1
4.4269347 11.532564 0.64739585 2 9
1.7110754 4.4575057 -0.92809504 2 2
4.4295778 11.533434 1.0809054 2 10
2.0165477 5.2478137 -0.89042509 2 3
4.4373116 11.541532 1.5182483 2 11
2.5143619 6.5364881 -0.85991013 2 4
4.4501123 11.562776 1.9623141 4 12
3.8004534 9.8696213 2.0557761 2 13
4.3900452 11.394821 -0.63996416 1 6
3.1996319 8.3006716 2.053803 3 14
4.4547834 11.550851 -0.2160957 0 7
2.7081244 7.0182643 2.0156829 38 15
1.2774178 3.2985046 -0.94779539 5 0
4.4317384 11.437556 0.21410613 2 8
1.4672558 3.7847691 -0.93714613 5 1
4.4180479 11.390419 0.64027816 2 9
1.7280436 4.4551668 -0.92885822 2 2
4.4150257 11.376739 1.0676578 2 10
2.0434349 5.2628388 -0.89417946 2 3
4.4186258 11.374243 1.4982618 2 11
2.5429151 6.5424743 -0.8618601 2 4
4.4346056 11.403567 1.9379103 4 12
3.8419981 9.8745918 2.0595925 2 13
4.3805232 11.252867 -0.63284647 1 6
3.2215168 8.2712927 2.0493042 2 14
4.438446 11.389897 -0.21337312 0 7
2.7297978 7.0015693 2.0136123 36 15
1.2875171 3.2904272 -0.94676012 5 0
4.433732 11.325188 0.21229108 3 8
1.4804574 3.7796245 -0.93714613 5 1
4.4235325 11.287527 0.63535857 3 9
1.7407202 4.4417958 -0.92733175 2 2
4.4139853 11.257382 1.0578964 2 10
2.0589066 5.2483187 -0.892928 2 3
4.4242172 11.2719 1.4868062 3 11
2.5729918 6.5520358 -0.86429745 2 4
4.4310398 11.277705 1.9191382 4 12
3.8721366 9.8501568 2.0573027 2 13
4.3817611 11.140857 -0.6274035 1 6
3.2539361 8.2690659 2.0515537 2 14
4.4254298 11.240368 -0.21085998 0 7
2.7499716 6.981214 2.0105064 37 15
1.3018365 3.2930984 -0.94883066 5 0
4.4217501 11.179476 0.20984773 3 8
1.495075 3.7780578 -0.93804586 5 1
4.415854 11.15317 0.62865961 3 9
1.7518792 4.4247398 -0.92504203 2 2
4.4114265 11.136323 1.0479606 3 10
2.0699372 5.2227349 -0.88979936 2 3
4.4181724 11.141977 1.4716942 3 11
2.5899892 6.5282536 -0.86234754 2 4
4.4302988 11.161188 1.9019306 5 12
3.9014266 9.8238077 2.0546315 2 13
4.3741579 11.00856 -0.6208092 2 6
3.2892618 8.2739534 2.0556028 2 14
4.4202986 11.113363 -0.20876569 1 7
2.7757509 6.9751625 2.0115416 35 15
1.313323 3.2885346 -0.94883066 5 0
4.3984241 11.007989 0.20691574 3 8
1.5154885 3.7909107 -0.94254488 5 1
4.3983855 10.996751 0.62070453 3 9
1.7775202 4.4441185 -0.93038476 2 2
4.3962383 10.985821 1.0352359 2 10
2.0881543 5.2154784 -0.88979936 2 3
4.4024115 10.990124 1.4536576 2 11
2.6179323 6.5320702 -0.86405367 1 4
4.4236474 11.031981 1.8825326 5 12
3.9349616 9.8083086 2.0542498 3 13
4.4014015 10.965421 -0.61923909 8 6
3.3079543 8.2371044 2.0493042 2 14
4.4098568 10.975403 -0.20646198 1 7
2.8044074 6.9761848 2.0146475 33 15
1.3291315 3.2946792 -0.95193648 5 0
4.4278393 10.970317 0.20649688 8 8
1.519955 3.7639146 -0.93714613 5 1
4.4225321 10.946144 0.6187157 7 9
1.7974359 4.4488068 -0.93267435 2 2
4.4211173 10.93716 1.0320983 7 10
2.1063459 5.208158 -0.88979936 2 3
4.3930964 10.856919 1.4380584 2 11
2.6414645 6.5247321 -0.86429745 1 4
4.4116993 10.891973 1.8612576 5 12
3.9669652 9.789052 2.0531049 3 13
4.4441562 10.961094 -0.61986715 8 6
3.3293598 8.2074499 2.044805 4 14
4.4398718 10.939559 -0.20607802 3 7
2.8258362 6.9591928 2.0125771 35 15
1.3398927 3.2882316 -0.95141882 6 0
4.4751678 10.977014 0.20691574 9 8
1.5345571 3.7621942 -0.93804586 5 1
4.4652352 10.941739 0.61934376 8 9
1.8040498 4.4206948 -0.92809504 2 2
4.4652958 10.936417 1.0334928 9 10
2.1275022 5.2080879 -0.89105082 2 3
4.3874016 10.734945 1.4239216 2 11
2.674741 6.5411959 -0.86770982 1 4
4.4033203 10.76315 1.8418596 5 12
4.003336 9.7805996 2.0542498 3 13
4.472549 10.921488 -0.61850643 2 6
3.3336098 8.1362705 2.0299582 1 14
4.4818215 10.933248 -0.20625255 6 7
2.8413129 6.9278388 2.0063653 9 15
1.3462169 3.2710288 -0.94779539 5 0
4.5073686 10.94653 0.20663649 1 8
1.546195 3.7532115 -0.93714613 5 1
4.4954114 10.912097 0.61850643 3 9
1.8209672 4.4180002 -0.92885822 2 2
4.4829388 10.871031 1.0287864 3 10
2.1577222 5.2298474 -0.89605671 2 3
4.3854637 10.624146 1.4112471 2 11
2.6824045 6.4951229 -0.86283505 1 4
4.3877172 10.624334 1.8205845 5 12
4.0734563 9.853653 2.0725675 1 13
4.4549232 10.771078 -0.61086535 1 6
3.3552823 8.1083784 2.0259092 4 14
4.4981704 10.870283 -0.20534502 0 7
2.8738761 6.9415832 2.0130947 2 15
1.3561447 3.2627416 -0.94676012 5 0
4.4853115 10.791188 0.20398372 2 8
1.5586319 3.7480638 -0.93714613 5 1
4.4782381 10.763568 0.61097002 2 9
1.839397 4.4188666 -0.93038476 2 2
4.4710617 10.735766 1.0174562 2 10
2.1568255 5.1788983 -0.8885479 2 3
4.3718095 10.492271 1.3956479 2 11
2.7161486 6.5155091 -0.86673486 1 4
4.3951135 10.537853 1.8083826 6 12
4.1106491 9.8509607 2.0748572 1 13
4.4367514 10.62723 -0.60353833 1 6
3.3776443 8.0864201 2.0232098 6 14
4.4852009 10.73274 -0.2030413 0 7
2.8891485 6.91012 2.0068829 5 15
1.369944 3.265353 -0.94883066 5 0
4.4827046 10.679586 0.20216867 2 8
1.5686883 3.7354128 -0.93534642 5 1
4.4724607 10.644753 0.60510838 2 9
1.8601253 4.4272218 -0.93343765 2 2
4.4618602 10.61435 1.007346 2 10
2.1810179 5.185905 -0.89105082 2 3
4.3676062 10.379972 1.3827296 2 11
2.7481163 6.5279436 -0.86965966 1 4
4.3889346 10.420499 1.7908621 6 12
4.1511116 9.8510237 2.0779099 1 13
4.4357996 10.521501 -0.59840941 2 6
3.4081247 8.0799656 2.0245595 6 14
4.4853215 10.628585 -0.20136586 0 7
2.9192617 6.9142313 2.011024 5 15
1.38661 3.2730024 -0.95245409 6 0
4.4637718 10.53131 0.19965553 2 8
1.5878035 3.7442675 -0.93894571 5 1
4.4580984 10.50773 0.59820002 2 9
1.8770984 4.4243178 -0.93420094 2 2
4.4584055 10.503342 0.99828184 2 10
2.2052829 5.1928067 -0.89355379 2 3
4.3626628 10.267834 1.3698115 2 11
2.7584627 6.4890804 -0.86575991 1 4
4.3819914 10.303317 1.7733413 6 12
4.1816225 9.8274431 2.0760019 1 13
4.4318218 10.410392 -0.59296644 2 6
3.4294376 8.0518827 2.0205104 7 14
4.4784884 10.509847 -0.1994112 0 7
2.9403505 6.8968902 2.0089536 5 15
1.3987871 3.2699182 -0.95297176 5 0
4.4643054 10.431101 0.1980499 3 8
1.6039331 3.7458675 -0.94074529 5 1
4.4585752 10.407654 0.5933851 2 9
1.8863473 4.4033012 -0.93114793 2 2
4.4526558 10.388827 0.98886907 2 10
2.2358532 5.2141242 -0.89855969 2 3
4.3476081 10.133962 1.3539685 1 11
2.7818787 6.4812369 -0.86600363 2 4
4.3696017 10.175424 1.7539434 6 12
2.5888374 6.028585 -0.57400775 1 5
4.2112546 9.8019648 2.0737123 1 13
2.5523167 5.9378223 -0.33871832 1 6
3.4575214 8.0398636 2.0205104 7 14
4.4756336 10.402303 -0.19766594 0 7
2.9644091 6.8865833 2.0089536 5 15
1.4048302 3.2526014 -0.94934833 6 0
4.3896427 10.158463 0.19316325 1 8
1.6077199 3.7187803 -0.93534642 5 1
4.3846636 10.137222 0.57883573 1 9
1.9048225 4.4038973 -0.93267435 2 2
4.3765297 10.113571 0.96411681 1 10
2.2430539 5.1809082 -0.89417946 2 3
4.3608618 10.067722 1.3471439 0 11
2.5732107 5.9378128 -0.79458821 6 4
4.3673787 10.073113 1.7389257 4 12
2.5615213 5.9080048 -0.5633747 14 5
4.2634106 9.8286295 2.0824895 1 13
2.5531485 5.8830733 -0.33610156 12 6
3.4933286 8.0456209 2.0250094 7 14
2.5662863 5.9076991 -0.1124284 0 7
2.5579872 5.8857827 1.7195939 0 15
1.4208091 3.2583022 -0.95245409 6 0
2.5691681 5.8889961 0.11214916 15 8
1.6300449 3.7345784 -0.94074529 5 1
2.5712879 5.888247 0.33672959 20 9
1.921756 4.4008198 -0.93343765 2 2
2.5636508 5.8679657 0.56023711 11 10
2.2627063 5.1766677 -0.89480525 2 3
2.5666418 5.8692265 0.7865448 12 11
2.5700531 5.8742342 -0.78727603 22 4
2.5806735 5.8957067 1.019327 12 12
2.5637519 5.8570485 -0.55936551 22 5
2.5564084 5.8374982 1.238732 8 13
2.5544336 5.8302197 -0.3335894 18 6
2.5700433 5.8630629 1.4779284 13 14
2.5708311 5.8620777 -0.11173031 9 7
1.4282817 3.2444825 -0.94986594 5 0
1.6399273 3.7217331 -0.93894571 5 1
2.5724914 5.8353734 0.33421743 21 9
1.9386911 4.3976769 -0.93420094 2 2
2.5776849 5.844398 0.5588426 19 10
2.2807615 5.1687384 -0.89480525 2 3
2.5558486 5.7894063 0.77703899 18 11
2.585268 5.8505268 1.0130697 25 12
2.5729058 5.8225508 -0.55692518 34 5
2.5602262 5.7883902 -0.33170533 25 6
2.5810294 5.8326721 1.4725296 16 14
2.5734699 5.81284 -0.1109624 12 7
2.5552027 5.7688661 1.6906061 34 15
1.4419527 3.2447727 -0.95141882 6 0
2.5866592 5.8179269 0.11113693 38 8
1.6505319 3.7106447 -0.93759602 5 1
2.570107 5.7752666 0.33128664 26 9
1.9524328 4.3872957 -0.93343765 2 2
2.5826743 5.8007808 0.55553067 16 10
2.2955737 5.1535282 -0.89355379 2 3
2.570384 5.7677584 0.77533287 21 11
2.587558 5.8035703 -0.78020763 37 4
2.5960193 5.8198171 1.0093153 27 12
2.5875347 5.8007965 -0.55570501 28 5
2.5762973 5.7728958 1.2288101 34 13
2.5755317 5.7684746 -0.33107728 36 6
2.5862741 5.7898197 1.4639815 21 14
2.5823212 5.7782626 -0.11047374 14 7
2.5776913 5.7652016 1.6921589 48 15
1.4532696 3.2397201 -0.95141882 6 0
2.6004002 5.7942677 0.11085769 39 8
1.6674662 3.7137489 -0.93984544 5 1
2.5927048 5.7717266 0.33160067 28 9
1.9516449 4.3446369 -0.92580527 2 2
2.5922885 5.768106 0.55326468 19 10
2.3313715 5.1851192 -0.90043688 2 3
2.5856144 5.747889 0.77387041 33 11
2.6012816 5.7800217 -0.77825767 37 4
2.591176 5.7548833 0.99961638 27 12
2.6053123 5.7862792 -0.5551821 30 5
2.5859518 5.7405968 1.2238491 30 13
2.5890856 5.7448831 -0.33023992 34 6
2.5984571 5.7629924 1.4594824 30 14
2.5934317 5.7491612 -0.11008978 15 7
2.5827029 5.7227125 1.6823239 51 15
1.4613816 3.2275887 -0.94934833 6 0
2.6123605 5.7669396 0.11050864 46 8
1.6739852 3.6937056 -0.93624628 5 1
2.6085339 5.7558193 0.33118194 29 9
1.9813906 4.3699832 -0.93267435 2 2
2.6091163 5.7517638 0.55256736 25 10
2.3706832 5.2237177 -0.90857148 2 3
2.6040196 5.7352138 0.7733829 35 11
2.6148756 5.7564464 -0.77630776 39 4
2.6135154 5.7534523 1.0008678 28 12
2.6172526 5.7590103 -0.55343896 32 5
2.5970318 5.7118773 1.2196511 32 13
2.6041629 5.7249017 -0.3296119 33 6
2.6129091 5.7414703 1.4563332 28 14
2.6116531 5.7387104 -0.11005487 18 7
2.5936568 5.6965361 1.6771475 54 15
1.4750488 3.2277384 -0.95090121 5 0
2.6198325 5.7327824 0.11001997 46 8
1.6910858 3.6987684 -0.93894571 5 1
2.6219623 5.7321491 0.33034459 30 9
2.0031695 4.3773217 -0.93572736 2 2
2.6225417 5.7281299 0.55117291 32 10
2.3797686 5.1978669 -0.90544277 2 3
2.6221991 5.7247415 0.77313918 37 11
2.6347761 5.7495489 -0.77655149 42 4
2.6302912 5.7371106 0.99961638 30 12
2.632354 5.7389736 -0.55239308 42 5
2.6077754 5.6853881 1.215835 35 13
2.6256311 5.7216806 -0.32992589 36 6
2.6238048 5.7150631 1.4518342 28 14
2.6266599 5.7186565 -0.10984544 19 7
2.6103005 5.6804256 1.6750768 59 15
1.4857451 3.2228289 -0.95090121 5 0
2.6398265 5.7236032 0.11001997 58 8
1.6999035 3.683996 -0.93669617 5 1
2.6386082 5.7157078 0.32992589 31 9
2.014384 4.3635244 -0.93420094 2 2
2.6348405 5.7049303 0.5497784 27 10
2.399554 5.1931152 -0.9060685 2 3
2.6338379 5.6975341 0.77070183 39 11
2.6439984 5.7168932 -0.7733829 40 4
2.6453204 5.7171397 0.99773914 30 12
2.6481874 5.7207093 -0.55152148 52 5
2.6243079 5.6691236 1.2143085 35 13
2.6371953 5.6943564 -0.32887918 39 6
2.6494691 5.7182484 1.4549835 28 14
2.6449254 5.7058239 -0.10977564 24 7
2.628489 5.6677737 1.6740416 70 15
1.4991771 3.2208648 -0.95193648 5 0
2.6581035 5.7107267 0.10995016 56 8
1.719335 3.6921723 -0.94029546 5 1
2.6534789 5.6956015 0.32929787 43 9
2.0287037 4.3525534 -0.93343765 2 2
2.6540473 5.6916242 0.54942977 28 10
2.433603 5.2165093 -0.91170013 2 3
2.6520276 5.6847095 0.77021432 39 11
2.659739 5.6986356 -0.77216423 44 4
2.6635907 5.7042904 0.99711335 30 12
2.6681418 5.7114296 -0.55152148 50 5
2.6434047 5.65591 1.2135452 37 13
2.6563551 5.6810341 -0.32866985 37 6
2.6605051 5.6873155 1.4495846 30 14
2.6538124 5.6730084 -0.10932188 19 7
2.6482561 5.6585646 1.6740416 76 15
1.513697 3.2226059 -0.95400703 5 0
2.6756132 5.6937075 0.10981054 53 8
1.7328551 3.6858461 -0.94029546 5 1
2.6699467 5.6790738 0.32887918 56 9
2.0372012 4.3312325 -0.93038476 2 2
2.678139 5.691339 0.55030131 33 10
2.471992 5.2508755 -0.91920906 2 3
2.6745412 5.6785407 0.77070183 39 11
2.6797602 5.6870542 -0.77192044 40 4
2.680959 5.6895981 0.99617481 35 12
2.6897576 5.705688 -0.55187017 50 5
2.661458 5.6430964 1.212782 37 13
2.6761684 5.6717281 -0.32866985 39 6
2.6803374 5.6779957 1.4495846 29 14
2.673595 5.6637125 -0.10932188 23 7
2.6646934 5.6422977 1.6719712 76 15
1.5224524 3.2120664 -0.95245409 6 0
1.750079 3.690644 -0.94299489 5 1
2.6957479 5.6823502 0.3296119 61 9
2.0539882 4.3276439 -0.93114793 2 2
2.6894443 5.6639571 0.54855824 37 10
2.537689 5.3443604 -0.93704253 3 3
2.6916525 5.6660552 0.77021432 39 11
2.7011597 5.6835155 -0.77265167 42 4
2.6974115 5.6730685 0.99492329 42 12
2.7070916 5.6908655 -0.5513472 58 5
2.6818421 5.6377859 1.2135452 36 13
2.7095513 5.6934819 -0.33044925 69 6
2.6974778 5.6655569 1.4486848 30 14
2.7079694 5.6850362 -0.10991526 46 7
2.6793849 5.622499 1.6688653 78 15
1.530597 3.201771 -0.95090121 5 0
2.7099931 5.6663432 0.10963602 100 8
1.7604288 3.6792383 -0.94164515 5 1
2.7190149 5.6801124 0.33003056 58 9
2.0751104 4.3349743 -0.93420094 2 2
2.7125142 5.6639934 0.54942977 43 10
2.4820731 5.1804829 -0.909823 2 3
2.7079811 5.6494651 0.76923937 44 11
2.7244174 5.6812115 -0.77362669 53 4
2.727453 5.6849895 0.99867773 45 12
2.72595 5.6818566 -0.5513472 60 5
2.6930089 5.6106915 1.2097291 41 13
2.7060671 5.635376 -0.32762313 39 6
2.7358043 5.6947494 1.4585826 54 14
2.7130699 5.6449089 -0.10932188 30 7
2.6973193 5.6096301 1.66783 84 15
1.5417647 3.1964083 -0.95090121 5 0
2.7314928 5.6604514 0.10970583 57 8
1.7690222 3.6642973 -0.93939561 5 1
2.7257977 5.643609 0.32846051 46 9
2.0885229 4.3241682 -0.93343765 2 2
2.7227345 5.6347556 0.54751235 33 10
2.5052958 5.1824594 -0.91170013 2 3
2.7250931 5.6346159 0.76850814 55 11
2.7312644 5.6448622 -0.7699706 43 4
2.733506 5.6469879 0.99367183 40 12
2.7223246 5.623889 -0.54664081 46 5
2.709156 5.5941882 1.2082026 43 13
2.7048233 5.5827575 -0.325111 33 6
2.7276151 5.6272969 1.4437358 32 14
2.7266517 5.6228089 -0.10907754 26 7
2.7050805 5.5758467 1.660583 66 15
1.5596749 3.2049036 -0.9550423 5 0
2.727602 5.6023378 0.1087634 49 8
1.7843633 3.6633554 -0.94074529 5 1
2.7166076 5.574811 0.32500634 38 9
2.0984435 4.306263 -0.93114793 2 2
2.7205584 5.5804453 0.5431546 28 10
2.5233722 5.1736817 -0.91170013 2 3
2.716017 5.5661964 0.76046479 41 11
2.7248259 5.581778 -0.76265842 45 4
2.7306638 5.5912604 0.98553723 34 12
2.7192075 5.5678034 -0.54210871 42 5
2.713155 5.5529461 1.2013335 41 13
2.7032425 5.5302181 -0.32259887 37 6
2.7215571 5.5652232 1.4302388 33 14
2.7242937 5.5683503 -0.10820492 23 7
2.7032938 5.5229917 1.6476421 64 15
1.5768119 3.2115793 -0.95866579 6 0
2.7277467 5.5532947 0.10799549 49 8
1.798858 3.6606026 -0.94164515 5 1
2.7228317 5.5384092 0.32343623 44 9
2.1203909 4.3130069 -0.93420094 2 2
2.7215564 5.5333695 0.53949404 31 10
2.5623467 5.2073808 -0.91920906 2 3
2.7161431 5.5174999 0.75510252 43 11
2.7197373 5.522368 -0.75583369 41 4
2.7187326 5.5179048 0.97427392 28 12
2.7174911 5.5153847 -0.53792524 50 5
2.70648 5.4906135 1.1898849 40 13
2.6960304 5.4670081 -0.31945869 31 6
2.7133746 5.4997659 1.4158419 33 14
2.7207012 5.5121841 -0.1072974 24 7
2.7011743 5.4702168 1.6347013 70 15
1.5760092 3.1818192 -0.95141882 6 0
2.7240286 5.4971533 0.10708796 46 8
1.8047013 3.6403327 -0.93804586 5 1
2.7208512 5.4859276 0.32092413 42 9
2.1354344 4.3055787 -0.93420094 2 2
2.7098589 5.46137 0.53339314 29 10
2.5717263 5.1807108 -0.91608036 2 3
2.717726 5.4724269 0.75022775 47 11
2.7230976 5.4808421 -0.75144643 42 4
2.722152 5.4765401 0.96864235 32 12
2.7136707 5.4594769 -0.53339314 56 5
2.7011518 5.4319119 1.1791997 37 13
2.697304 5.4218006 -0.31736526 28 6
2.7099814 5.4449005 1.4041444 28 14
2.718533 5.4596934 -0.10645968 24 7
2.6944096 5.4088798 1.6191721 70 15
1.5922865 3.1866677 -0.9545247 6 0
2.7172723 5.4357395 0.10607573 44 8
1.8243718 3.6479545 -0.94164515 5 1
2.7167475 5.4299569 0.31820264 42 9
2.159234 4.3156562 -0.93801707 2 2
2.7057209 5.4055533 0.52886105 29 10
2.593334 5.1787667 -0.91733181 2 3
2.7181387 5.4256368 0.74510926 49 11
2.7208672 5.4287105 -0.74559671 45 4
2.7217743 5.4281549 0.96175921 34 12
2.7077076 5.4001012 -0.52851242 50 5
2.6972075 5.3768249 1.1692775 41 13
2.6982975 5.3766503 -0.31527182 37 6
2.7079873 5.3936095 1.3933468 25 14
2.7124412 5.4001369 -0.10548234 23 7
2.6950593 5.3631911 1.6083016 64 15
1.6051402 3.18454 -0.95555997 6 0
2.7155178 5.3851562 0.10527291 49 8
1.8353381 3.6380842 -0.94074529 5 1
2.7095895 5.368732 0.31516716 38 9
2.1707485 4.3010821 -0.93649065 2 2
2.7084076 5.3640623 0.5257234 27 10
2.6140664 5.1749725 -0.91827041 3 3
2.7057257 5.354105 0.73657835 43 11
2.7183034 5.3766627 -0.73974699 43 4
2.722873 5.3833675 0.95550185 28 12
2.7049577 5.3479476 -0.52432895 44 5
2.6964602 5.3288379 1.160882 43 13
2.689986 5.3137412 -0.31213167 37 6
2.7109487 5.3528318 1.3852487 25 14
2.7150078 5.3585262 -0.10485406 22 7
2.6884332 5.303781 1.5932901 68 15
1.6109927 3.1685855 -0.95245409 6 0
2.7143555 5.336432 0.10450501 53 8
1.8497949 3.6351287 -0.94164515 5 1
2.7074716 5.3183041 0.3127597 42 9
2.1910918 4.3039761 -0.93878025 2 2
2.7090297 5.3190684 0.52223718 32 10
2.6374965 5.1763759 -0.92014766 3 3
2.7027607 5.3021822 0.73072863 40 11
2.7063916 5.3070159 -0.73145986 41 4
2.7111268 5.314003 0.94486433 27 12
2.7073123 5.3065267 -0.52119136 52 5
2.697196 5.2844195 1.1532496 41 13
2.686718 5.2616291 -0.30961955 36 6
2.7110014 5.3068919 1.3758006 28 14
2.7118571 5.3062811 -0.10401635 23 7
2.6928582 5.2668438 1.5850078 70 15
1.6273334 3.1732564 -0.95555997 6 0
2.716537 5.294898 0.10387672 47 8
1.8624701 3.6286509 -0.94164515 5 1
2.7068515 5.2737594 0.31066626 46 9
2.1953418 4.2753434 -0.93420094 2 2
2.7102842 5.2759075 0.51892531 34 10
2.6447108 5.1460562 -0.91639322 3 3
2.7012844 5.2538757 0.72536635 42 11
2.7067416 5.2622309 -0.72658509 50 4
2.7088544 5.2663383 0.93798119 35 12
2.7057593 5.2580709 -0.51735646 54 5
2.6940575 5.2330799 1.1440908 35 13
2.6812928 5.2060523 -0.30689809 36 6
2.7018359 5.2436967 1.3618537 27 14
2.7092848 5.2581539 -0.10324844 23 7
2.6908374 5.2201076 1.5736198 73 15
1.634851 3.1606927 -0.95348942 6 0
2.7101955 5.2396793 0.10296919 47 8
1.8780763 3.6293771 -0.94344473 5 1
2.7050447 5.2252574 0.30836347 42 9
2.2174764 4.2816005 -0.93725383 2 2
2.701185 5.2133436 0.5136959 34 10
2.6581275 5.1302419 -0.91514176 3 3
2.7068152 5.2219787 0.72219777 48 11
2.702246 5.2109318 -0.72073537 46 4
2.7090261 5.2217822 0.93172377 33 12
2.6947279 5.1920047 -0.51177853 52 5
2.6896896 5.1822977 1.134932 36 13
2.6838174 5.1687703 -0.30522332 36 6
2.7030413 5.2035794 1.3537554 24 14
2.7018044 5.1989799 -0.1022711 21 7
2.6823099 5.1592607 1.5580908 66 15
1.647109 3.1586802 -0.9545247 6 0
2.7062676 5.1876383 0.10213149 51 8
1.8889314 3.6193435 -0.94254488 5 1
2.6964614 5.1644382 0.30532798 40 9
2.2243924 4.2603011 -0.93420094 2 2
2.6917064 5.1531448 0.50864094 31 10
2.6586378 5.087667 -0.90919721 5 3
2.7001967 5.164999 0.71561682 42 11
2.7056956 5.1733241 -0.71683556 48 4
2.7089226 5.1772885 0.92546642 33 12
2.6897635 5.1406713 -0.50759506 52 5
2.6840916 5.1276526 1.1250099 38 13
2.6851618 5.1275249 -0.30333924 40 6
2.6976769 5.1492305 1.3420579 26 14
2.6976581 5.1470089 -0.10143339 21 7
2.6796656 5.1105165 1.5461851 54 15
1.6599226 3.1563315 -0.95555997 6 0
2.7020147 5.1356864 0.10129377 53 8
1.9033667 3.6161783 -0.94344473 5 1
2.7005131 5.1284871 0.30375794 42 9
2.2429082 4.2594595 -0.93572736 2 2
2.6976075 5.1208014 0.5063749 36 10
2.6708565 5.0678697 -0.90732002 10 3
2.6867306 5.09584 0.70732975 42 11
2.7061422 5.130487 -0.71220452 53 4
2.7011662 5.1188822 0.91670603 30 12
2.6909554 5.0995321 -0.50445741 50 5
2.6818092 5.0800571 1.1166143 40 13
2.6797271 5.0739675 -0.30072245 43 6
2.6974287 5.1053214 1.3330599 30 14
2.700655 5.1092749 -0.10087491 23 7
2.676719 5.061852 1.5342795 57 15
1.6691206 3.147104 -0.9545247 6 0
2.6993043 5.0873623 0.10052586 53 8
1.9196335 3.6163967 -0.94524431 5 1
2.6959178 5.0766931 0.30124578 50 9
2.261447 4.2585397 -0.93725383 2 2
2.6967697 5.0761642 0.50288862 37 10
2.678329 5.0393305 -0.90387845 12 3
2.6895921 5.0583858 0.70342994 44 11
2.692337 5.0614228 -0.70391744 55 4
2.7023108 5.0780354 0.91107446 31 12
2.6984406 5.0707626 -0.50253999 58 5
2.6792295 5.0325384 1.1082187 37 13
2.668318 5.0099349 -0.2974776 39 6
2.6932366 5.0546002 1.3222623 28 14
2.6996617 5.0645232 -0.10017681 23 7
2.6780105 5.0217938 1.5249618 60 15
1.6855619 3.15148 -0.95763052 6 0
2.7000661 5.0461717 0.099897578 53 8
1.9230496 3.5924926 -0.94074529 5 1
2.6966493 5.0355601 0.29936171 46 9
2.2707362 4.2402358 -0.93496412 2 2
2.693774 5.0280819 0.49905378 34 10
2.6772411 4.9951282 -0.8976211 20 3
2.6950369 5.0262237 0.70026129 46 11
2.6846535 5.0047617 -0.69733644 50 4
2.70134 5.0337591 0.90481704 33 12
2.695399 5.0226889 -0.49870515 59 5
2.6763489 4.9851022 1.0998231 36 13
2.6668875 4.9653993 -0.29538417 36 6
2.6868834 5.000535 1.3105649 28 14
2.6927056 5.009274 -0.099269286 24 7
2.6753929 4.9749846 1.5135738 60 15
1.6910493 3.1353755 -0.9545247 6 0
2.6986742 5.0015178 0.099199481 51 8
1.9411312 3.5960479 -0.94344473 5 1
2.691433 4.9839396 0.29684958 44 9
2.2761943 4.2150092 -0.93114793 2 2
2.6829 4.9660597 0.49382445 36 10
2.6833892 4.9648991 -0.89386666 18 3
2.6955695 4.9853554 0.69587398 48 11
2.6888862 4.9709153 -0.69392407 46 4
2.6963298 4.9826035 0.89730817 31 12
2.6844668 4.9606819 -0.49347579 58 5
2.6787779 4.9481063 1.0937172 38 13
2.6708889 4.9314728 -0.29391876 39 6
2.6857541 4.9568586 1.3015668 25 14
2.6834915 4.9506202 -0.098291956 23 7
2.6697211 4.9231591 1.5006329 51 15
1.6973693 3.1209676 -0.95193648 5 0
2.6912665 4.9463978 0.098291956 56 8
1.9536729 3.5892494 -0.94344473 5 1
2.684936 4.9306622 0.29423279 38 9
2.3040392 4.2311769 -0.93649065 2 2
2.6821074 4.9234219 0.49051252 31 10
2.6761274 4.9104042 -0.88573205 18 3
2.6882503 4.9306002 0.68953681 46 11
2.6929128 4.9371018 -0.69051176 50 4
2.6928909 4.9350128 0.89042509 30 12
2.6740918 4.9005609 -0.48842075 52 5
2.6753399 4.9008145 1.0853217 42 13
2.6775556 4.9028378 -0.29276738 43 6
2.6918294 4.9269309 1.296168 27 14
2.6854122 4.913147 -0.097733475 21 7
2.6655717 4.8748255 1.4887272 58 15
1.7166127 3.1302688 -0.95659518 6 0
2.694088 4.910676 0.097768381 60 8
1.9680644 3.5858252 -0.94434458 5 1
2.6896334 4.8985009 0.29287204 44 9
2.3263528 4.236876 -0.93954355 2 2
2.6887248 4.8948216 0.4885951 37 10
2.6675665 4.8542895 -0.87728459 16 3
2.6777101 4.8707399 0.68246841 42 11
2.6919532 4.8946242 -0.68588072 53 4
2.6948662 4.8978906 0.88541919 28 12
2.6777365 4.8667579 -0.48598042 52 5
2.6734955 4.857048 1.0776893 42 13
2.6696038 4.8479748 -0.29004589 43 6
2.6902065 4.8833661 1.2871699 28 14
2.6909626 4.8827276 -0.097314619 23 7
2.6676493 4.8384228 1.480445 60 15
1.7256602 3.1208761 -0.95555997 6 0
2.6908851 4.8644967 0.097035386 56 8
1.9824573 3.5823429 -0.94524431 5 1
2.6854348 4.8506403 0.29056925 48 9
2.3278167 4.2046828 -0.93420094 2 2
2.6903481 4.8575201 0.48580611 38 10
2.6691759 4.8173032 -0.87227869 16 3
2.6841109 4.8422642 0.67978722 48 11
2.6801403 4.833117 -0.67856854 52 4
2.69278 4.8539071 0.87916183 30 12
2.6860085 4.8417015 -0.4844116 58 5
2.6656647 4.8030539 1.0677671 38 13
2.6603346 4.7914791 -0.28721976 37 6
2.6845253 4.8330607 1.2763723 29 14
2.6885653 4.8383451 -0.096616521 25 7
2.6732574 4.8088198 1.4742333 63 15
1.7427325 3.1246538 -0.95866579 6 0
2.6892104 4.8196754 0.096337289 54 8
1.9936736 3.5716503 -0.94434458 5 1
2.6809332 4.8028703 0.28826648 48 9
2.3355534 4.1824102 -0.93114793 2 2
2.6848145 4.805881 0.48162264 38 10
2.6752486 4.7867961 -0.86852419 16 3
2.6863399 4.8046722 0.67588747 49 11
2.6755519 4.783412 -0.67296261 48 4
2.6884933 4.8065491 0.87227869 32 12
2.6862228 4.8005285 -0.48127401 59 5
2.6679058 4.7658424 1.0616612 36 13
2.6583617 4.7468438 -0.28512633 33 6
2.6793604 4.7823873 1.2655747 27 14
2.6780701 4.7800837 -0.095639192 25 7
2.6692464 4.7623854 1.4628453 60 15
1.7479485 3.1084476 -0.95555997 6 0
2.6855769 4.7758703 0.095639192 56 8
2.0055058 3.5650201 -0.94434458 5 1
2.6820104 4.7656336 0.28659174 46 9
2.3694031 4.2084465 -0.93878025 2 2
2.6781058 4.754817 0.47743914 38 10
2.6697795 4.7400341 -0.86164117 16 3
2.6905653 4.7749834 0.67296261 51 11
2.6777515 4.7503037 -0.66955024 46 4
2.6858451 4.7627244 0.86602128 31 12
2.6735952 4.7390633 -0.47604465 59 5
2.668262 4.7296095 1.0555553 40 13
2.6583803 4.7101731 -0.28345159 37 6
2.6817896 4.7497191 1.2592759 29 14
2.6750708 4.7358828 -0.094941087 23 7
2.6573431 4.7025814 1.4473162 58 15
1.7563413 3.099273 -0.9545247 6 0
2.6805336 4.7281961 0.094871283 58 8
2.0217843 3.5647774 -0.94614416 5 1
2.6789181 4.721499 0.2844983 42 9
2.3814092 4.1971502 -0.93801707 2 2
2.6692722 4.7025919 0.47308138 32 10
2.6609492 4.6860232 -0.85350657 15 3
2.6768217 4.7120547 0.66540664 44 11
2.6825461 4.7202182 -0.66662538 50 4
2.6848814 4.7224088 0.86038971 30 12
2.6646767 4.6868706 -0.47168687 56 5
2.667285 4.689549 1.0486863 42 13
2.6659148 4.6852417 -0.28250951 42 6
2.6848578 4.7166181 1.2529774 28 14
2.6757543 4.6987128 -0.094382621 21 7
2.6584404 4.6664205 1.439034 57 15
1.7728984 3.103188 -0.95763052 6 0
2.6821387 4.6927676 0.094347708 63 8
2.0284109 3.5475483 -0.94344473 5 1
2.6795127 4.6843824 0.28282353 42 9
2.4077401 4.2092638 -0.94259644 2 2
2.6787453 4.6811399 0.47186115 36 10
2.6576633 4.6424189 -0.84724921 15 3
2.6656272 4.6544514 0.65858197 42 11
2.6802576 4.6780987 -0.66199434 53 4
2.6856339 4.6855865 0.85538375 28 12
2.667151 4.6533399 -0.46924651 52 5
2.6621504 4.6427422 1.0402907 42 13
2.6564157 4.6308627 -0.27978805 45 6
2.6819079 4.6734128 1.2439793 31 14
2.6781976 4.6650667 -0.093893945 24 7
2.6573961 4.6269574 1.4297165 60 15
1.7875773 3.1036763 -0.95970106 6 0
2.6825268 4.6556559 0.093789227 60 8
2.0407827 3.5404456 -0.94344473 5 1
2.675895 4.6403961 0.2807301 46 9
2.4165354 4.1906285 -0.94030684 2 2
2.6751542 4.6372461 0.46837494 38 10
2.667927 4.622849 -0.84537196 15 3
2.6729264 4.6296453 0.65638834 46 11
2.6747248 4.630899 -0.65663213 52 4
2.6861596 4.6488175 0.85037786 29 12
2.6763997 4.6319265 -0.46802634 58 5
2.6567264 4.5960269 1.0318952 41 13
2.6565678 4.5938973 -0.27811331 45 6
2.6747837 4.6235404 1.2331817 30 14
2.6784399 4.6279964 -0.093335465 25 7
2.6599805 4.5942469 1.4224695 60 15
1.7925795 3.087394 -0.95659518 6 0
2.677671 4.6099505 0.093056232 58 8
2.0531297 3.5332997 -0.94344473 5 1
2.6740079 4.599947 0.278846 48 9
2.4311478 4.182168 -0.94030684 2 2
2.6753006 4.6003227 0.46558598 40 10
2.6661682 4.5827732 -0.83974028 15 3
2.6750901 4.5962682 0.65297598 48 11
2.6659038 4.5786467 -0.65053862 50 4
2.6765211 4.5950322 0.84224325 30 12
2.6745019 4.5915656 -0.46488872 60 5
2.6549602 4.5561929 1.025026 40 13
2.652467 4.5500889 -0.27601984 39 6
2.6693099 4.5771399 1.2232838 28 14
2.6703928 4.5771661 -0.092497751 25 7
2.6584697 4.554903 1.413152 60 15
1.7965156 3.0694466 -0.95297176 5 0
2.6755605 4.5695138 0.092427947 54 8
2.0752978 3.5429282 -0.94794375 5 1
2.6690567 4.5565877 0.27675256 48 9
2.4616139 4.200757 -0.94641262 2 2
2.6651454 4.5462656 0.46105388 41 10
2.6641581 4.5427694 -0.83410865 15 3
2.6770556 4.5629311 0.64956367 49 11
2.6670105 4.5458097 -0.64712632 46 4
2.675745 4.5588741 0.83723736 29 12
2.6642809 4.5375328 -0.46035662 62 5
2.6569281 4.5231972 1.0196834 40 13
2.6470857 4.5046406 -0.27382174 35 6
2.6686757 4.5413814 1.2160853 27 14
2.6592088 4.5234642 -0.091590226 25 7
2.647119 4.5011005 1.3991758 55 15
1.8115906 3.0717928 -0.95555997 6 0
2.6683431 4.5227265 0.091660038 58 8
2.0850551 3.5326695 -0.9470439 5 1
2.6679106 4.5201907 0.27507779 48 9
2.4675443 4.1790471 -0.94335973 2 2
2.6619685 4.5065236 0.45791626 37 10
2.6490605 4.4828897 -0.82472259 15 3
2.6719675 4.5198526 0.6446889 46 11
2.6699471 4.5164351 -0.6442014 50 4
2.6727493 4.5193701 0.83160573 31 12
2.6569953 4.4909472 -0.45652178 59 5
2.6499131 4.4771934 1.0112877 42 13
2.6508167 4.4769325 -0.27267036 41 6
2.669822 4.5090303 1.2097868 27 14
2.6578875 4.487093 -0.091031753 24 7
2.6482422 4.4690304 1.3919289 54 15
1.8336103 3.0856969 -0.96177161 6 0
2.6700413 4.4915075 0.091206275 63 8
2.0907812 3.5156868 -0.94434458 5 1
2.6652927 4.4799533 0.27319372 42 9
2.5004623 4.202898 -0.95061046 3 2
2.6626291 4.4737039 0.4554759 36 10
2.6558259 4.4605021 -0.82221961 15 3
2.6605299 4.4666243 0.63835168 49 11
2.6724849 4.4849195 -0.64103281 53 4
2.6743467 4.4862585 0.82722551 28 12
2.6504507 4.4461722 -0.45286122 56 5
2.6546907 4.4515185 1.0074716 43 13
2.6451817 4.4338136 -0.27057692 45 6
2.6715622 4.4762568 1.2034881 29 14
2.6591837 4.4537501 -0.090543084 23 7
2.6469862 4.4315634 1.383129 58 15
1.8384138 3.0693343 -0.95866579 6 0
2.6713152 4.4581447 0.090717614 67 8
2.1050453 3.5117095 -0.94524431 5 1
2.6603699 4.4363651 0.27110028 48 9
2.5030007 4.1739402 -0.94603103 3 2
2.6679807 4.4472966 0.45373279 38 10
2.6541004 4.42241 -0.81690085 18 3
2.6485152 4.4113588 0.63177073 44 11
2.6595066 4.4279141 -0.63420814 53 4
2.6737111 4.4498048 0.82221961 28 12
2.6556919 4.4198155 -0.45111811 56 5
2.6479607 4.4052067 0.99907589 43 13
2.6421146 4.3937445 -0.26869282 45 6
2.667079 4.4335074 1.1944902 29 14
2.6644018 4.4273076 -0.090194039 25 7
2.6484883 4.399127 1.3758821 60 15
1.8481174 3.0612447 -0.95814812 5 0
2.670321 4.4214044 0.090159133 63 8
2.1213207 3.5110121 -0.9470439 5 1
2.661377 4.4031215 0.26963487 50 9
2.513494 4.1584563 -0.94450456 3 2
2.6628709 4.4038572 0.45024657 41 10
2.6582742 4.394527 -0.81345934 26 3
2.6628716 4.4003882 0.63152701 46 11
2.6523309 4.3812437 -0.62884587 53 4
2.6667142 4.4032722 0.81533653 29 12
2.6625831 4.3947158 -0.44954932 59 5
2.6470459 4.3690705 0.99297011 42 13
2.645014 4.3639979 -0.26743674 46 6
2.6623304 4.3908439 1.1854922 29 14
2.6570251 4.3803654 -0.08942613 26 7
2.6457896 4.360126 1.3665646 63 15
1.8543032 3.0461993 -0.95555997 6 0
2.6670213 4.3813109 0.089530841 63 8
2.137619 3.5102434 -0.9488436 5 1
2.6621819 4.3699255 0.26816946 50 9
2.5491519 4.1827455 -0.95213693 3 2
2.6561751 4.3566427 0.4464117 41 10
2.6609921 4.3628302 -0.80939204 31 3
2.6658106 4.3707299 0.62860215 48 11
2.6551998 4.3516245 -0.62592101 52 4
2.6676605 4.3703308 0.8109563 30 12
2.6550627 4.3479857 -0.44571447 60 5
2.6405244 4.3224812 0.9845745 40 13
2.6401606 4.3201904 -0.26534331 41 6
2.664176 4.3577785 1.1791934 29 14
2.6556096 4.3437667 -0.088867649 26 7
2.6368015 4.3113112 1.3541414 58 15
1.8689669 3.0462942 -0.95763052 6 0
2.6590021 4.3323078 0.088728033 56 8
2.1402729 3.4857786 -0.94434458 5 1
2.6523373 4.3197579 0.26565734 46 9
2.5534625 4.1570926 -0.94832075 3 2
2.650506 4.3133931 0.44292548 40 10
2.658618 4.3249068 -0.80407327 41 3
2.663096 4.3304925 0.62421483 49 11
2.6524098 4.311429 -0.62153369 48 4
