# .PCD v0.7 - Point Cloud Data file format
VERSION 0.7
FIELDS x y z intensity ring
SIZE 4 4 4 4 2
TYPE F F F F U
COUNT 1 1 1 1 1
WIDTH 1284
HEIGHT 1
VIEWPOINT 0 0 0 1 0 0 0
POINTS 1284
DATA ascii
1.6033467 -7.0118222 1.6605887 3 14
1.5758661 -6.8971858 -0.12349322 8 7
1.6007835 -7.0118785 1.9271667 7 15
0.93531418 -4.1201296 -1.1320745 4 0
1.5928979 -7.0225129 0.12569223 19 8
1.0910786 -4.814064 -1.1396021 3 1
1.5875266 -7.0044947 0.37640023 15 9
1.3632994 -6.0200348 -1.199807 8 2
1.5900105 -7.026835 0.6303103 14 10
1.5795747 -6.9863758 -1.1344628 15 3
1.5913665 -7.04425 0.88672143 18 11
1.5813955 -7.0058002 -0.88184667 18 4
1.5988828 -7.083272 1.1501063 14 12
1.582912 -7.0182252 -0.62943876 17 5
1.5917929 -7.0633407 1.4074073 3 13
1.5878359 -7.0515194 -0.37880769 13 6
1.601959 -7.1200418 1.6848834 5 14
1.5709821 -6.9823623 -0.12492433 11 7
1.5953186 -7.0963106 1.9489075 7 15
0.9217692 -4.127141 -1.1331098 4 0
1.5852939 -7.0980144 0.1269488 19 8
1.0793529 -4.8366756 -1.1441011 3 1
1.587407 -7.1191597 0.38226187 17 9
1.3422778 -6.0247569 -1.199807 8 2
1.5853879 -7.1218023 0.63832867 14 10
1.5739967 -7.070631 -1.1472905 13 3
1.5861002 -7.1308732 0.89695841 16 11
1.575381 -7.0885181 -0.8915962 19 4
1.5968443 -7.1910148 1.1666883 21 12
1.5808467 -7.1248527 -0.63850296 18 5
1.5836705 -7.1375794 1.4211454 4 13
1.5869222 -7.1581421 -0.38425064 15 6
1.6010984 -7.2280564 1.7091781 3 14
1.5647497 -7.0698061 -0.12639034 11 7
1.5905616 -7.1923776 1.9737542 7 15
0.90973717 -4.137722 -1.1351804 4 0
1.5815315 -7.1992078 0.12865914 18 8
1.058285 -4.8213792 -1.1396021 3 1
1.5830848 -7.2182999 0.38728613 16 9
1.3248148 -6.0406814 -1.2020967 8 2
1.5796742 -7.2087612 0.64564973 14 10
1.56705 -7.1571283 -1.160431 13 3
1.5781695 -7.2139359 0.906708 17 11
1.5718228 -7.1909394 -0.90378314 19 4
1.5911207 -7.2853203 1.1810803 16 12
1.5767663 -7.219595 -0.64652127 17 5
1.5805122 -7.242806 1.4409896 3 13
1.5772427 -7.2338886 -0.38801882 12 6
1.592865 -7.3116689 1.7276241 4 14
1.5613275 -7.1729221 -0.12813558 11 7
1.5851521 -7.2884965 1.9986008 7 15
0.89447224 -4.1370959 -1.1341451 4 0
1.5741261 -7.2867785 0.13012515 18 8
1.0414487 -4.8250442 -1.1396021 2 1
1.5747204 -7.3018775 0.391473 17 9
1.3041346 -6.0471888 -1.2024784 10 2
1.5771639 -7.3194065 0.65506256 14 10
1.5636777 -7.2629733 -1.1767002 13 3
1.5746857 -7.3203168 0.91938239 18 11
1.5625637 -7.2701321 -0.91304523 17 4
1.5839303 -7.3758097 1.1948466 17 12
1.5737274 -7.3282976 -0.65575975 19 5
1.5733417 -7.3327398 1.4577808 4 13
1.5737524 -7.3408999 -0.39346173 16 6
1.5844762 -7.3972163 1.74652 4 14
1.5546932 -7.2643666 -0.12967138 10 7
1.5827266 -7.4016662 2.0281062 7 15
0.87922174 -4.1364141 -1.1331098 4 0
1.571945 -7.4017682 0.13207981 18 8
1.0262182 -4.8362751 -1.1414016 3 1
1.5707623 -7.4089289 0.39691594 16 9
1.2801676 -6.0382595 -1.199807 8 2
1.5681198 -7.402833 0.66203499 14 10
1.5571309 -7.357285 -1.1910921 12 3
1.5688372 -7.4189916 0.93108183 17 11
1.5601561 -7.384306 -0.92669457 19 4
1.5785733 -7.4779325 1.21049 18 12
1.5641853 -7.4097738 -0.66255796 16 5
1.5712364 -7.4496045 1.4799147 4 13
1.5678874 -7.4401565 -0.39848602 12 6
1.5807271 -7.5075831 1.7712647 5 14
1.5482635 -7.3597651 -0.13127699 11 7
1.5755572 -7.4960008 2.0524352 7 15
0.86319768 -4.1318932 -1.1310393 4 0
1.563259 -7.4894257 0.13354582 18 8
1.0109209 -4.8474584 -1.1432012 3 1
1.5636321 -7.5043082 0.40173087 16 9
1.2598838 -6.046535 -1.2005702 8 2
1.5650104 -7.5174928 0.67179644 14 10
1.5539659 -7.4709792 -1.2086128 12 3
1.5655502 -7.5332627 0.94473124 17 11
1.5509167 -7.4693956 -0.93668783 15 4
1.5717219 -7.5762386 1.2255077 21 12
1.5585471 -7.5127311 -0.67127347 17 5
1.5643486 -7.5473185 1.4982322 3 13
1.565398 -7.5590186 -0.40455699 15 6
1.5762284 -7.6180124 1.7960092 4 14
1.5411855 -7.4552054 -0.13288262 9 7
1.570091 -7.601727 2.07987 7 15
0.84643865 -4.1235271 -1.1279335 4 0
1.5563903 -7.5888648 0.13522124 18 8
0.99242961 -4.8433218 -1.1414016 3 1
1.5582566 -7.6114678 0.40717378 15 9
1.2387688 -6.0508966 -1.2005702 8 2
1.5563273 -7.6087971 0.67946619 13 10
1.542908 -7.5499024 -1.2205019 12 3
1.5551283 -7.6164799 0.95448077 16 11
1.5490377 -7.593411 -0.95155597 19 4
1.5665702 -7.6861997 1.2424027 24 12
1.5530047 -7.6196427 -0.68033773 16 5
1.5567976 -7.6450748 1.5165499 4 13
1.5565225 -7.6505518 -0.40916255 13 6
1.5756359 -7.7514167 1.8261526 6 14
1.538236 -7.5742021 -0.13490711 10 7
1.564676 -7.7112913 2.1083403 7 15
0.83433056 -4.1378188 -1.1310393 4 0
1.5504259 -7.696188 0.13703629 18 8
0.97551769 -4.846756 -1.1414016 3 1
1.5545163 -7.7304287 0.41324475 16 9
1.22422 -6.0879035 -1.2070577 10 2
1.5548744 -7.7391977 0.69062209 14 10
1.5383139 -7.6636996 -1.2380226 13 3
1.5503916 -7.7308569 0.96813011 16 11
1.5404626 -7.6883068 -0.9627679 18 4
1.5567904 -7.7768474 1.256169 31 12
1.5475152 -7.730514 -0.68975055 16 5
1.5493541 -7.7467189 1.5356308 4 13
1.551333 -7.763659 -0.4149195 30 6
1.5645913 -7.8371329 1.8450485 6 14
1.5321271 -7.6815009 -0.13672216 10 7
1.5566261 -7.8114357 2.1342218 7 15
0.82438499 -4.1634464 -1.1372509 4 0
1.5452842 -7.8114071 0.13899097 18 8
0.95934832 -4.8539553 -1.1423014 2 1
1.542225 -7.810266 0.41722229 15 9
1.2006798 -6.080584 -1.2047681 10 2
1.5463601 -7.8384047 0.69898903 14 10
1.5317997 -7.7717419 -1.2546046 15 3
1.544107 -7.8413968 0.98129201 17 11
1.5343082 -7.7988157 -0.9759298 28 4
1.5532559 -7.9024072 1.2755668 30 12
1.5405035 -7.8375278 -0.69881475 15 5
1.5465149 -7.8753738 1.5600544 3 13
1.5403717 -7.8513417 -0.4193157 16 6
1.5559677 -7.9381638 1.8675436 6 14
1.5268251 -7.7966981 -0.13867682 10 7
1.5508635 -7.926785 2.1642449 7 15
0.80726594 -4.1530242 -1.1336274 3 0
1.5393559 -7.9266825 0.14094563 17 8
0.94462651 -4.868753 -1.1450008 2 1
1.5400369 -7.9450116 0.42413062 16 9
1.1764584 -6.0693188 -1.2017151 10 2
1.5409597 -7.9572058 0.70909911 14 10
1.5264258 -7.8895273 -1.272751 15 3
1.5370694 -7.9519868 0.99445397 16 11
1.5281539 -7.9132733 -0.9895792 23 4
1.5421271 -7.9931245 1.289333 29 12
1.5372916 -7.9680614 -0.70997071 18 5
1.5427961 -8.0041008 1.584478 4 13
1.5405267 -7.9998398 -0.42695674 18 6
1.5481288 -8.0468855 1.8918384 6 14
1.5162085 -7.8883848 -0.14021264 9 7
1.5461369 -8.0516729 2.1968563 7 15
0.79059261 -4.1444306 -1.1305215 3 0
1.5341388 -8.0498686 0.14303991 18 8
0.92398006 -4.8528771 -1.1405019 3 1
1.5316128 -8.0442524 0.4291549 15 9
1.1589345 -6.0926752 -1.2055314 10 2
1.5317736 -8.0604038 0.71781468 14 10
1.5195092 -8.0034866 -1.2902716 15 3
1.5329785 -8.0821238 1.0100532 17 11
1.5234369 -8.0394821 -1.004691 26 4
1.5398865 -8.1262894 1.3099824 29 12
1.5235512 -8.0477676 -0.71659446 15 5
1.5338188 -8.1097479 1.6043221 3 13
1.5318764 -8.1072206 -0.43239969 20 6
1.5482266 -8.201602 1.9269307 6 14
1.5130389 -8.0151978 -0.14237672 10 7
1.5401924 -8.1668615 2.2268791 7 15
0.77754247 -4.1547613 -1.1325922 3 0
1.5243568 -8.1453285 0.14464554 18 8
0.90788257 -4.8559146 -1.1405019 2 1
1.5255272 -8.1673479 0.43543521 15 9
1.1376598 -6.0966835 -1.2055314 10 2
1.5248059 -8.1793032 0.72792476 13 10
1.5107 -8.1036367 -1.3056022 13 3
1.5243413 -8.1847391 1.0222402 16 11
1.5178293 -8.1576834 -1.0188278 23 4
1.5338918 -8.2520256 1.3293802 30 12
1.5223697 -8.1979961 -0.72949362 18 5
1.5269915 -8.2228842 1.6256927 3 13
1.5275698 -8.2340097 -0.43888938 18 6
1.5380667 -8.298665 1.9485261 6 14
1.5061684 -8.1344757 -0.14440121 10 7
1.5359212 -8.3032627 2.2625961 7 15
0.76550615 -4.1668167 -1.1351804 4 0
1.5190176 -8.2764769 0.14687945 17 8
0.88881791 -4.8475533 -1.1378024 3 1
1.517881 -8.2865686 0.44150621 15 9
1.1177905 -6.1023536 -1.2059129 8 2
1.5220613 -8.317585 0.73977798 14 10
1.4909291 -8.1554956 -1.3131109 10 3
1.5200135 -8.3228006 1.0388143 16 11
1.5121475 -8.2879143 -1.0344272 24 4
1.5256231 -8.3700447 1.3475267 27 12
1.5166117 -8.3206062 -0.73995227 18 5
1.5200835 -8.3479176 1.649353 3 13
1.5195518 -8.3532619 -0.44496036 18 6
1.5324358 -8.4324455 1.9786695 5 14
1.4999104 -8.2616711 -0.14656532 9 7
1.5283026 -8.426425 2.2946897 7 15
0.75027114 -4.1656618 -1.1341451 4 0
1.5141985 -8.4155588 0.14925298 17 8
0.8718918 -4.850626 -1.1378024 2 1
1.5101249 -8.4097643 0.44778651 15 9
1.0982165 -6.11588 -1.207821 10 2
1.5134219 -8.4365892 0.74988794 13 10
1.465589 -8.1781502 -1.3159269 10 3
1.5112417 -8.4413891 1.0529512 16 11
1.502779 -8.4025707 -1.0480764 23 4
1.5200231 -8.5075502 1.3688017 31 12
1.5092852 -8.4474506 -0.75075954 15 5
1.514738 -8.4865294 1.6756847 3 13
1.5096667 -8.4666586 -0.4507173 17 6
1.5241786 -8.5566931 2.0065634 5 14
1.4934849 -8.3928576 -0.14879921 9 7
1.5218725 -8.5610476 2.3298893 7 15
0.73505455 -4.1644502 -1.1331098 4 0
1.5063428 -8.5428915 0.15141708 17 8
0.85765904 -4.8689938 -1.1414016 3 1
1.5036058 -8.5448103 0.45469484 14 9
1.0748205 -6.1080747 -1.2055314 10 2
1.5088005 -8.583106 0.76243842 14 10
1.4377151 -8.1871071 -1.3165526 10 3
1.5057776 -8.5834789 1.0700129 16 11
1.4939986 -8.5250826 -1.0627007 21 4
1.5134797 -8.6451187 1.3900769 33 12
1.4989065 -8.5706816 -0.76121825 15 5
1.5077653 -8.621336 1.7012531 3 13
1.5065705 -8.6233711 -0.45877704 18 6
1.5157446 -8.684823 2.0353572 5 14
1.4837563 -8.5103073 -0.1507888 8 7
1.5125309 -8.6843061 2.3619826 7 15
0.71978599 -4.1671162 -1.1331098 4 0
1.5017 -8.6939154 0.15400003 17 8
0.8419832 -4.8796391 -1.1432012 3 1
1.4954823 -8.6759729 0.4613938 14 9
1.0507603 -6.1022997 -1.2036232 8 2
1.4955702 -8.6946106 0.77185118 14 10
1.4110433 -8.211791 -1.3196814 10 3
1.498665 -8.7217197 1.0865872 15 11
1.4884123 -8.671113 -1.0802499 22 4
1.503325 -8.7671661 1.408849 26 12
1.4891627 -8.6936884 -0.7716769 15 5
1.4996663 -8.7641993 1.728348 3 13
1.4964919 -8.7548323 -0.46547604 18 6
1.505879 -8.8190222 2.0655005 6 14
1.4755819 -8.6415901 -0.15302271 8 7
1.5049459 -8.8228378 2.3982174 7 15
0.7045911 -4.1657934 -1.1320745 4 0
1.4891484 -8.8137217 0.15602452 18 8
0.82344395 -4.8788495 -1.1423014 3 1
1.49045 -8.8308144 0.46934891 15 9
1.0291263 -6.1039944 -1.2032416 7 2
1.4877131 -8.8333797 0.78370446 12 10
1.3830264 -8.220562 -1.320307 10 3
1.4890612 -8.8602724 1.1031613 15 11
1.4776541 -8.8018026 -1.0958493 21 4
1.4962591 -8.9126253 1.4313755 31 12
1.4825337 -8.8403111 -0.78422731 15 5
1.489176 -8.8894291 1.7520082 3 13
1.488337 -8.8939533 -0.47259375 13 6
1.5001481 -8.9741468 2.1005929 6 14
1.4671692 -8.7768621 -0.15532643 8 7
1.4967309 -8.9633245 2.4349697 7 15
0.69067705 -4.1720395 -1.1331098 4 0
1.4808152 -8.9448748 0.15825842 17 8
0.80535281 -4.8700175 -1.1396021 3 1
1.4791476 -8.9541969 0.47562921 15 9
1.0097307 -6.1191716 -1.2055314 7 2
1.4814951 -8.9879236 0.79695207 14 10
1.3567219 -8.2309504 -1.3212456 8 3
1.4822465 -9.0022726 1.120223 15 11
1.4703661 -8.9398508 -1.1124234 20 4
1.4888384 -9.0620384 1.4545279 31 12
1.4742525 -8.983058 -0.79642916 13 5
1.4848067 -9.047368 1.7821561 3 13
1.4824233 -9.0427198 -0.4802348 17 6
1.4917948 -9.1098442 2.1311862 6 14
1.4591198 -8.9200716 -0.15776975 8 7
1.4872396 -9.1019545 2.4712043 6 15
0.6796208 -4.1914697 -1.1377686 3 0
1.4745198 -9.1039581 0.16098098 17 8
0.79208356 -4.8958836 -1.1450008 3 1
1.4711366 -9.0931234 0.48274687 14 9
0.98943305 -6.1224866 -1.2055314 7 2
1.4770831 -9.1501427 0.81089705 14 10
1.3292408 -8.2434359 -1.3224971 8 3
1.4741728 -9.1524191 1.1382598 15 11
1.4618546 -9.0860405 -1.1299726 21 4
1.4807439 -9.2034454 1.4764287 31 12
1.4691155 -9.1413355 -0.81002545 14 5
1.4777995 -9.2056322 1.8123039 3 13
1.4767796 -9.209548 -0.48881787 15 6
1.4855666 -9.2747068 2.1685281 5 14
1.4529345 -9.0709772 -0.16035272 8 7
1.4808551 -9.2556276 2.5115802 6 15
0.66347289 -4.1842761 -1.1351804 4 0
1.4662434 -9.2470493 0.16342433 17 8
0.7727952 -4.8792362 -1.1405019 3 1
1.4631069 -9.2481298 0.49070197 15 9
0.96499163 -6.1065111 -1.2017151 7 2
1.4693654 -9.3087473 0.82449329 12 10
1.3049768 -8.2673101 -1.3256258 8 3
1.4660741 -9.2984409 1.1558089 15 11
1.4539523 -9.2320242 -1.1475219 22 4
1.4713258 -9.3529606 1.499581 29 12
1.4597728 -9.2900896 -0.82275021 27 5
1.4722538 -9.3695192 1.8435967 3 13
1.461096 -9.3091049 -0.49384215 16 6
1.4780449 -9.427824 2.2031708 6 14
1.4423001 -9.2103348 -0.16272624 8 7
1.4742125 -9.4248848 2.556097 6 15
0.64900118 -4.1826358 -1.1341451 4 0
1.4511082 -9.3627739 0.16537902 15 8
0.75695169 -4.889607 -1.1423014 3 1
1.4480138 -9.3535929 0.49604025 30 9
0.94623625 -6.1193786 -1.2036232 8 2
1.4597764 -9.4514027 0.83669513 11 10
1.2761103 -8.2718153 -1.3256258 8 3
1.4565849 -9.4526091 1.1743331 15 11
1.4452718 -9.3900785 -1.1665335 20 4
1.4661449 -9.5256929 1.5264877 29 12
1.4480314 -9.4189415 -0.83373177 13 5
1.4603984 -9.5104351 1.8703098 3 13
1.4573587 -9.5016937 -0.50378597 12 6
1.470504 -9.5985842 2.2418623 6 14
1.42901 -9.3277359 -0.16471581 12 7
1.4639904 -9.567214 2.5933669 6 15
0.63555562 -4.1925154 -1.1362157 4 0
1.4470261 -9.5454731 0.16852044 7 8
0.74189925 -4.8997974 -1.1441011 3 1
1.4440248 -9.548171 0.50608873 12 9
0.9269231 -6.1362329 -1.2062945 7 2
1.4517442 -9.6219273 0.85133731 12 10
1.2492622 -8.2799091 -1.3262516 7 3
1.450079 -9.6222734 1.1948072 15 11
1.4383546 -9.5557833 -1.18652 20 4
1.4581416 -9.6987476 1.5533944 29 12
1.4435476 -9.6130867 -0.85046571 15 5
1.4533418 -9.6783113 1.9023658 3 13
1.4504303 -9.670413 -0.51247376 10 6
1.4643624 -9.7749319 2.2819035 5 14
1.4204116 -9.4928589 -0.1675431 4 7
1.4562833 -9.7442236 2.6399543 6 15
0.62108266 -4.1907778 -1.1351804 4 0
1.4379995 -9.714653 0.17141753 8 8
0.72422165 -4.8985014 -1.1432012 3 1
1.4343206 -9.7131958 0.5145672 10 9
0.90972412 -6.1606369 -1.2104924 8 2
1.4454108 -9.8001423 0.86667669 13 10
1.2192014 -8.2764025 -1.325 7 3
1.4381548 -9.7745714 1.2130876 13 11
1.4286551 -9.7217951 -1.2065066 21 4
1.4472265 -9.8601322 1.5784239 31 12
1.4348079 -9.7755232 -0.86441064 10 5
1.4457486 -9.8620348 1.9374746 3 13
1.4406812 -9.8394403 -0.5211615 10 6
1.452509 -9.9323139 2.3174458 6 14
1.4144338 -9.6837568 -0.17082416 5 7
1.4468026 -9.917469 2.6855066 6 15
0.60728031 -4.1986561 -1.1367333 3 0
1.4303843 -9.9016943 0.17462878 9 8
0.70433533 -4.8817124 -1.1387023 3 1
1.4231956 -9.8762913 0.52294093 8 9
0.88625365 -6.1501732 -1.207821 7 2
1.4356034 -9.9747267 0.88166744 14 10
1.1914281 -8.2884293 -1.3262516 7 3
1.4294144 -9.956377 1.2350241 13 11
1.4172528 -9.8839226 -1.2260057 21 4
1.4357637 -10.02547 1.6040792 29 12
1.4292048 -9.9796715 -0.88201612 10 5
1.4368877 -10.04582 1.9725834 3 13
1.4303356 -10.012469 -0.53005862 8 6
1.4453552 -10.130245 2.3624361 6 14
1.406576 -9.8707676 -0.17403539 7 7
1.4353123 -10.085029 2.7295058 5 15
0.59181035 -4.1950116 -1.1351804 4 0
1.4220387 -10.092759 0.17790982 9 8
0.69054919 -4.9072981 -1.1441011 3 1
1.4156746 -10.073048 0.53309411 8 9
0.86259413 -6.1376758 -1.2047681 7 2
1.4234867 -10.141467 0.89596105 14 10
1.1652309 -8.3120985 -1.3293802 8 3
1.4210755 -10.150035 1.258423 13 11
1.4080333 -10.069678 -1.2484297 23 4
1.4248018 -10.202582 1.6316116 28 12
1.4153031 -10.134564 -0.89526373 11 5
1.4256787 -10.221886 2.006166 3 13
1.4190726 -10.187524 -0.53906041 8 6
1.4314663 -10.28964 2.3984282 6 14
1.394954 -10.040012 -0.1769325 10 7
1.4258555 -10.275588 2.7797167 6 15
0.57532156 -4.1836548 -1.1315569 3 0
1.4085648 -10.25615 0.18070221 8 8
0.67394525 -4.9135399 -1.1450008 3 1
1.4070691 -10.271848 0.54335195 8 9
0.84329647 -6.1562099 -1.207821 7 2
1.4102205 -10.308243 0.91025454 14 10
1.1367439 -8.3200312 -1.330006 7 3
1.4097917 -10.331951 1.2803594 14 11
1.3969978 -10.251554 -1.2703662 18 4
1.4147518 -10.395398 1.6616471 25 12
1.4040987 -10.317122 -0.91095179 11 5
1.4143156 -10.405774 2.0412748 3 13
1.4106367 -10.392306 -0.54963231 12 6
1.4217187 -10.487681 2.4434183 6 14
1.3789455 -10.185516 -0.17941074 5 7
1.4148281 -10.464288 2.8294098 6 15
0.56148374 -4.1913824 -1.1331098 4 0
0.65627348 -4.9119992 -1.1441011 3 1
0.82206082 -6.1610622 -1.2082026 6 2
1.3973887 -10.486897 0.92559397 14 10
1.106132 -8.3121996 -1.3281288 7 3
1.3962061 -10.506039 1.3013209 14 11
1.3868002 -10.449216 -1.2942526 18 4
1.399739 -10.560849 1.6873024 31 12
1.3903275 -10.503914 -0.92698848 21 5
1.3864838 -10.474874 2.0538683 4 13
1.3979076 -10.575369 -0.55905271 10 6
1.3817856 -10.467465 2.4375696 12 14
1.3731787 -10.416277 -0.18338989 7 7
1.3727447 -10.427027 2.8180218 10 15
0.54786408 -4.2068214 -1.1367333 3 0
1.3862549 -10.644478 0.18736903 15 8
0.63761532 -4.9026656 -1.1414016 3 1
0.79997963 -6.1679277 -1.2089659 6 2
1.0751517 -8.3122787 -1.327503 7 3
1.3754909 -10.648898 -1.3183827 18 4
1.3854721 -10.75571 -0.94877744 13 5
1.3363093 -10.388367 2.0359321 14 13
1.3840758 -10.774558 -0.56931055 10 6
1.3406847 -10.451197 2.4326205 14 14
1.3604745 -10.605467 -0.18663603 6 7
1.334375 -10.416425 2.8138809 10 15
0.53317606 -4.2087083 -1.1367333 3 0
1.3753407 -10.871682 0.19127838 15 8
0.61817688 -4.8933687 -1.1387023 3 1
1.3182019 -10.434632 0.55120236 13 9
0.77844453 -6.1706829 -1.2089659 6 2
1.3494538 -10.712095 0.94459391 14 10
1.047608 -8.3277407 -1.3293802 7 3
1.3551366 -10.787567 1.3349569 13 11
1.3628901 -10.864621 -1.3444628 20 4
1.3817902 -11.015288 1.7583237 25 12
1.3702055 -10.938406 -0.96446544 13 5
1.3758249 -10.998818 2.1546154 3 13
1.3726989 -10.989401 -0.58040577 10 6
1.3796906 -11.061079 2.5734401 4 14
1.3484434 -10.810568 -0.19016142 5 7
1.381102 -11.088149 2.9940188 4 15
0.51871812 -4.212461 -1.1372509 4 0
1.3654324 -11.088547 0.1950132 13 8
0.60480028 -4.9186025 -1.1441011 3 1
1.3616054 -11.089388 0.58553475 11 9
0.75594485 -6.1655674 -1.2074393 6 2
1.3628985 -11.132041 0.98119932 12 10
1.0204674 -8.3350916 -1.330006 7 3
1.3636796 -11.15456 1.3798048 13 11
1.3511488 -11.068097 -1.3690803 15 4
1.3674725 -11.218091 1.7899233 24 12
1.3565714 -11.144856 -0.98224521 13 5
1.366861 -11.229389 2.1988828 2 13
1.362516 -11.210004 -0.59181505 8 6
1.3721168 -11.305477 2.6292279 5 14
1.336202 -11.025637 -0.19386134 5 7
1.3669908 -11.296195 3.0488884 4 15
0.50221896 -4.1930585 -1.1315569 3 0
1.3518888 -11.303713 0.19871311 9 8
0.58901376 -4.9322934 -1.1468004 3 1
1.3474833 -11.300327 0.59642065 7 9
0.73688948 -6.1797371 -1.2097291 6 2
3.1433322 -26.399973 2.3260124 12 10
0.99276513 -8.3503714 -1.3318831 7 3
1.3420525 -11.305124 1.3978415 2 11
1.3333019 -11.248192 -1.3907731 11 4
1.3287389 -11.226459 -0.98904335 2 5
3.1073852 -26.332905 -1.3896245 26 6
3.1234174 -26.508516 6.1623092 13 14
1.3192017 -11.212946 -0.19707258 3 7
3.1126451 -26.496672 7.148582 19 15
0.48802587 -4.1986237 -1.1325922 3 0
3.0656242 -26.41465 0.4641642 30 8
0.56999856 -4.9188333 -1.1432012 3 1
3.0538249 -26.393456 1.3924506 61 9
0.71576411 -6.1861725 -1.2104924 6 2
3.0516195 -26.414743 2.3263609 42 10
0.96451712 -8.3616362 -1.3331347 7 3
3.0444269 -26.433437 3.2670736 67 11
1.3981252 -12.157969 -1.5026492 9 4
3.0863705 -26.880129 4.2853661 29 12
2.4309068 -21.171497 -1.8644356 7 5
3.0145376 -26.335651 -1.3892057 26 6
3.0290987 -26.503769 6.15871 13 14
3.0053837 -26.337042 -0.46269819 10 7
3.0192599 -26.499699 7.146512 19 15
0.47552982 -4.2194991 -1.1377686 3 0
2.9709408 -26.403332 0.46378025 33 8
0.55413043 -4.9324121 -1.1459007 2 1
2.9605653 -26.39403 1.3919272 48 9
0.69591725 -6.2042408 -1.2135452 6 2
2.9576216 -26.409393 2.3249664 45 10
0.93532348 -8.3649521 -1.3331347 7 3
2.948617 -26.412336 3.2631738 60 11
1.3644731 -12.24169 -1.5123987 11 4
2.9925187 -26.890738 4.2853661 32 12
2.356153 -21.206009 -1.8667017 7 5
2.9197307 -26.32021 -1.387845 21 6
2.9382768 -26.529676 6.1623092 13 14
2.9125555 -26.339422 -0.4625586 10 7
2.9246199 -26.490875 7.1413355 19 15
0.46006134 -4.2212133 -1.1377686 3 0
2.8774574 -26.401615 0.46357083 33 8
0.53564477 -4.9226923 -1.1432012 3 1
2.8656132 -26.378391 1.3905665 43 9
0.67338449 -6.2087021 -1.2139269 7 2
2.8603771 -26.416096 2.3246179 45 10
0.90317166 -8.3545761 -1.3309445 6 3
2.8551219 -26.410629 3.2617114 66 11
1.3281232 -12.305587 -1.5197108 10 4
2.8960972 -26.877451 4.2816119 32 12
2.2791293 -21.186371 -1.8642613 7 5
2.8215384 -26.314846 -1.3870076 21 6
2.8352127 -26.486013 6.1497121 18 14
2.8171866 -26.317616 -0.46200013 10 7
2.8337734 -26.516291 7.1454768 19 15
0.44532412 -4.2227936 -1.1377686 3 0
2.7802553 -26.408007 0.46350101 33 8
0.5200429 -4.9478798 -1.1486001 3 1
2.7724702 -26.378304 1.3900431 48 9
0.64986467 -6.1934419 -1.2104924 6 2
2.7664921 -26.410069 2.3232236 42 10
0.8737976 -8.3557129 -1.3306317 7 3
2.7566535 -26.405121 3.2597616 66 11
1.2942295 -12.39702 -1.5304353 9 4
2.798986 -26.855959 4.2766061 35 12
2.2090807 -21.23185 -1.8675733 11 5
2.7278075 -26.306656 -1.3860656 25 6
2.7473652 -26.49527 6.1497121 18 14
2.7269533 -26.343201 -0.46227935 10 7
2.7380219 -26.495274 7.1371946 19 15
0.42974839 -4.2088723 -1.1336274 3 0
2.6910448 -26.401167 0.46322179 33 8
0.50284356 -4.9418216 -1.1468004 2 1
2.6841748 -26.379404 1.3896245 48 9
0.6297195 -6.1994696 -1.2112557 6 2
2.6760828 -26.391344 2.3207831 42 10
0.84548712 -8.3526688 -1.3296931 6 3
2.6682796 -26.406218 3.2587867 66 11
1.2594998 -12.464445 -1.5382349 8 4
2.704361 -26.810064 4.2678456 42 12
2.1360652 -21.213287 -1.8653071 7 5
2.6413565 -26.323505 -1.3864843 25 6
2.659102 -26.500357 6.1488123 18 14
2.6375873 -26.332203 -0.46193027 10 7
2.6459157 -26.461918 7.1258063 19 15
0.41654813 -4.2179642 -1.135698 3 0
2.5999513 -26.374123 0.46259347 33 8
0.48645294 -4.9434619 -1.1468004 2 1
2.5916858 -26.384634 1.389415 48 9
0.60973328 -6.2073846 -1.2124004 7 2
2.5877726 -26.392139 2.3200858 42 10
0.81759226 -8.3534594 -1.3293802 7 3
2.5795395 -26.403065 3.257324 60 11
1.2196437 -12.506305 -1.542866 7 4
2.6076968 -26.787884 4.2628398 49 12
2.0662887 -21.226202 -1.8658301 11 5
2.5523136 -26.31423 -1.3855423 21 6
2.566206 -26.505598 6.1479125 13 14
2.544503 -26.329308 -0.46172088 10 7
2.5542715 -26.478683 7.1278768 19 15
0.40273824 -4.2290082 -1.1382862 4 0
2.5074902 -26.379057 0.46252367 33 8
0.46845767 -4.9373698 -1.1450008 2 1
2.4980664 -26.377615 1.3885777 48 9
0.58861762 -6.2153387 -1.2135452 6 2
2.4935679 -26.379194 2.3181684 39 10
0.78842801 -8.3562632 -1.3293802 7 3
2.4858735 -26.396097 3.2553742 60 11
1.176538 -12.516414 -1.5435972 8 4
2.511405 -26.767321 4.2581468 56 12
1.990135 -21.211466 -1.8639127 7 5
2.4580302 -26.297127 -1.3841815 25 6
2.4729466 -26.506632 6.1461124 17 14
2.4518354 -26.330063 -0.46158126 10 7
2.4618304 -26.487436 7.1278768 19 15
0.38638583 -4.2130747 -1.1336274 3 0
2.4143038 -26.375702 0.46231425 33 8
0.45051146 -4.9312124 -1.1432012 2 1
2.403796 -26.362307 1.3873217 48 9
0.56691754 -6.2173557 -1.2135452 6 2
2.4003909 -26.375832 2.3171225 39 10
0.7603274 -8.3707685 -1.3312575 7 3
2.3922811 -26.388798 3.2534242 66 11
1.1339134 -12.532308 -1.5450597 8 4
2.4122684 -26.712971 4.2481351 59 12
1.9184097 -21.24408 -1.8661788 11 5
2.3653257 -26.295601 -1.3836582 21 6
2.3769205 -26.476286 6.1371145 13 14
2.3581293 -26.318544 -0.46123222 10 7
2.368324 -26.484325 7.1247711 19 15
0.37371358 -4.2374902 -1.1398392 3 0
2.3218691 -26.379984 0.46224445 33 8
0.43431857 -4.9444027 -1.1459007 2 1
2.3100178 -26.350641 1.3862749 52 9
0.54349756 -6.1997395 -1.2097291 6 2
2.3084805 -26.386036 2.3172967 42 10
0.73110306 -8.3733721 -1.3312575 7 3
2.2994654 -26.389078 3.2524493 66 11
1.091192 -12.548055 -1.5465221 9 4
2.3135419 -26.658251 4.2381229 59 12
1.8433805 -21.240721 -1.8653071 7 5
2.2726619 -26.293749 -1.3831348 25 6
2.2851558 -26.492186 6.1389141 13 14
2.2645299 -26.30669 -0.46088314 10 7
2.2753651 -26.486658 7.1232181 19 15
0.3579421 -4.2272191 -1.1367333 3 0
2.2287605 -26.375973 0.462035 33 8
0.4157466 -4.9303536 -1.1423014 2 1
2.2183604 -26.362522 1.3864843 48 9
0.52284139 -6.2133365 -1.2120188 6 2
2.214694 -26.374079 2.3155537 42 10
0.70153993 -8.3719358 -1.3306317 7 3
2.206671 -26.38903 3.2514744 66 11
1.0493665 -12.575526 -1.5494469 10 4
2.2175252 -26.630732 4.2324915 66 12
1.7663416 -21.257263 -1.8661788 11 5
2.179713 -26.287588 -1.3824021 21 6
2.1904197 -26.472813 6.1326156 13 14
2.1710424 -26.294506 -0.4605341 10 7
2.1813087 -26.475185 7.1180415 19 15
0.34182233 -4.2208004 -1.1346627 3 0
2.1344202 -26.355686 0.46154633 33 8
0.39947617 -4.9434295 -1.1450008 2 1
2.1250362 -26.354179 1.3856469 52 9
0.50006402 -6.2152114 -1.2120188 6 2
2.1170564 -26.370104 2.314508 45 10
0.67037719 -8.3685436 -1.3296931 6 3
2.1135938 -26.384699 3.2500119 66 11
1.0060958 -12.587029 -1.550422 11 4
2.1176422 -26.551668 4.2187252 57 12
1.6894442 -21.229534 -1.8632153 7 5
2.1285365 -26.80632 5.2270217 9 13
2.0841346 -26.305357 -1.3829255 18 6
2.0936837 -26.484549 6.1335154 13 14
2.0798774 -26.309898 -0.46067372 10 7
2.0861447 -26.447971 7.1087241 19 15
0.32738522 -4.2258196 -1.135698 3 0
2.0374959 -26.359346 0.46147653 33 8
0.38105518 -4.9409742 -1.1441011 2 1
2.0272028 -26.345861 1.3848095 52 9
0.47926939 -6.2286639 -1.2143085 6 2
2.0243838 -26.369387 2.3138106 42 10
0.64146399 -8.3747721 -1.3303189 6 3
2.0150592 -26.368517 3.247087 66 11
0.95874763 -12.574796 -1.5484719 10 4
2.0111709 -26.439098 4.1996403 33 12
1.6135824 -21.261412 -1.8654815 11 5
1.9894364 -26.27463 -1.3809367 21 6
1.998283 -26.452831 6.1245174 13 14
1.9822301 -26.301394 -0.46039447 10 7
1.9897761 -26.463146 7.1107945 19 15
0.31189454 -4.2269912 -1.135698 3 0
1.9451802 -26.362309 0.46140674 33 8
0.36351874 -4.9383874 -1.1432012 2 1
1.9328883 -26.320906 1.3831348 52 9
0.45615071 -6.2264624 -1.2135452 6 2
1.9274305 -26.372654 2.313462 42 10
0.61263078 -8.4026785 -1.3343862 8 3
1.9224256 -26.367472 3.2461121 66 11
0.91369665 -12.562227 -1.5465221 9 4
1.9160093 -26.406555 4.1933827 37 12
1.5360473 -21.221209 -1.8614724 7 5
1.8919731 -26.265808 -1.3800993 21 6
1.9010384 -26.456091 6.1236176 13 14
1.8898348 -26.300175 -0.46025488 10 7
1.8961432 -26.452589 7.1061358 19 15
0.29861331 -4.2279501 -1.135698 3 0
1.8569046 -26.356644 0.46119729 33 8
0.34714088 -4.9395657 -1.1432012 2 1
1.8499081 -26.322865 1.3829255 52 9
0.43658718 -6.2278647 -1.2135452 6 2
1.8431811 -26.358706 2.3117189 45 10
0.58471859 -8.382885 -1.3309445 6 3
1.834704 -26.369741 3.2456248 66 11
0.8714835 -12.557265 -1.5455471 9 4
1.8314019 -26.388796 4.1896286 47 12
1.4699208 -21.233881 -1.8621696 7 5
1.8080771 -26.251698 -1.3790525 21 6
1.8157766 -26.430824 6.1164188 13 14
1.8050072 -26.274063 -0.45969641 10 7
1.8129007 -26.456488 7.105618 19 15
0.28411233 -4.2328219 -1.1367333 3 0
1.7678876 -26.338715 0.46077842 33 8
0.33284131 -4.9717999 -1.1503997 2 1
1.7574797 -26.321188 1.3825067 52 9
0.4145849 -6.2254329 -1.212782 6 2
1.7495757 -26.341124 2.3096273 42 10
0.55691642 -8.384778 -1.3309445 6 3
1.7464603 -26.363796 3.2441621 66 11
0.82983685 -12.560086 -1.5455471 8 4
1.7394059 -26.396999 4.1899409 54 12
1.3944871 -21.219 -1.8604264 7 5
1.7202255 -26.24559 -1.3784245 43 6
1.729138 -26.452257 6.1200185 17 14
1.7114638 -26.252268 -0.45920774 20 7
1.718909 -26.437593 7.0988889 19 15
0.26933616 -4.2221732 -1.1336274 3 0
1.6735215 -26.306808 0.46011522 60 8
0.31523815 -4.9690418 -1.1494999 2 1
1.665341 -26.323175 1.3822974 48 9
0.39468184 -6.2385297 -1.2150718 6 2
1.6614619 -26.334848 2.3085814 42 10
0.52690023 -8.3748417 -1.3290673 6 3
1.6534309 -26.353882 3.2422123 66 11
0.78574073 -12.558946 -1.5450597 9 4
1.6467599 -26.395023 4.1886897 57 12
1.3232455 -21.209587 -1.8592062 11 5
1.6278611 -26.239477 -1.3777965 43 6
1.6360691 -26.446463 6.1173191 17 14
1.6201813 -26.264069 -0.45931244 25 7
1.6249561 -26.416439 7.0916424 19 15
0.25517756 -4.2327299 -1.1362157 4 0
1.581326 -26.306501 0.46001053 52 8
0.29649177 -4.9467692 -1.1441011 2 1
1.5722507 -26.308895 1.3812507 48 9
0.37372184 -6.2535882 -1.2177432 7 2
1.5692915 -26.33651 2.3082325 42 10
0.49778128 -8.3786011 -1.3293802 7 3
1.5602509 -26.339678 3.2397749 66 11
0.74002564 -12.529905 -1.5411599 9 4
1.5539198 -26.388783 4.1868124 60 12
1.2481501 -21.196178 -1.8576375 7 5
1.5350904 -26.22506 -1.3767499 43 6
1.5435159 -26.44812 6.1164188 17 14
1.5282627 -26.26557 -0.45924261 25 7
1.5326228 -26.420019 7.0911245 19 15
0.24116755 -4.2470961 -1.1398392 3 0
1.4893789 -26.309864 0.45997563 67 8
0.27944198 -4.9516649 -1.1450008 3 1
1.4795108 -26.298267 1.3804133 46 9
0.35089853 -6.2372127 -1.2143085 6 2
1.4766803 -26.329893 2.3071868 45 10
0.46919289 -8.3921223 -1.3312575 7 3
1.4674174 -26.329107 3.2378249 64 11
0.69562101 -12.520519 -1.5396974 10 4
1.4611368 -26.382208 4.1849351 60 12
1.1697946 -21.188675 -1.8565917 7 5
1.4426599 -26.214304 -1.3759124 43 6
1.4511845 -26.453348 6.1164188 13 14
1.4359169 -26.258766 -0.45903322 25 7
1.4403898 -26.425209 7.0911245 19 15
0.22559948 -4.2479515 -1.1398392 3 0
1.3971032 -26.306915 0.45983601 65 8
0.26256764 -4.9603939 -1.1468004 2 1
1.3874958 -26.299284 1.380204 46 9
0.32844791 -6.2462993 -1.215835 6 2
1.3797489 -26.327168 2.3064895 42 10
0.4394623 -8.4135122 -1.3343862 7 3
1.3759195 -26.341999 3.2388 66 11
0.65253234 -12.534766 -1.5411599 9 4
1.3684253 -26.375313 4.1830583 64 12
1.0954103 -21.184669 -1.8558943 7 5
1.3461629 -26.211439 -1.3754938 43 6
1.3540188 -26.454597 6.115519 13 14
1.3432219 -26.243649 -0.45868415 25 7
1.3469582 -26.406923 7.0849128 19 15
0.20981319 -4.2294183 -1.1346627 3 0
1.300282 -26.303873 0.45969641 65 8
0.2445768 -4.9652162 -1.1477003 3 1
1.2954853 -26.299978 1.3799946 46 9
0.30702779 -6.2552514 -1.2173615 6 2
1.2866759 -26.307943 2.3043978 45 10
0.40970516 -8.4071035 -1.3331347 7 3
1.2785879 -26.331001 3.23685 64 11
0.60620177 -12.529141 -1.5401849 10 4
1.2761582 -26.375982 4.1824327 64 12
1.020498 -21.168463 -1.8541511 7 5
1.254468 -26.211985 -1.3752844 43 6
1.2598128 -26.420231 6.1065216 13 14
1.2512276 -26.240187 -0.45854455 25 7
1.2545916 -26.407604 7.0838776 19 15
0.19522631 -4.233984 -1.135698 3 0
1.2119417 -26.284069 0.45927754 65 8
0.22828946 -4.9698935 -1.1486001 3 1
1.2031279 -26.292366 1.3793666 46 9
0.28563789 -6.2660909 -1.2192695 7 2
1.1946516 -26.308294 2.3040493 42 10
0.38164437 -8.4044695 -1.3325089 7 3
1.1907281 -26.323198 3.2353876 58 11
0.56500733 -12.539017 -1.5411599 9 4
1.1835489 -26.368437 4.1805549 67 12
0.94482219 -21.13209 -1.850665 7 5
1.1671826 -26.208019 -1.3748657 43 6
1.1720196 -26.420372 6.1056218 13 14
1.1592709 -26.236401 -0.4584049 25 7
1.161894 -26.400244 7.0807719 19 15
0.18168068 -4.2461886 -1.1388038 3 0
1.1200148 -26.284143 0.45920774 61 8
0.21060924 -4.9628716 -1.1468004 2 1
1.1113392 -26.296406 1.3793666 46 9
0.26535359 -6.2787728 -1.2215593 7 2
1.1072382 -26.308132 2.3037004 42 10
0.35263661 -8.4136438 -1.3337604 7 3
1.0981697 -26.311329 3.2334378 52 11
0.52140051 -12.544878 -1.5416473 8 4
1.0911742 -26.364511 4.1793036 67 12
0.87342143 -21.103256 -1.8478761 7 5
1.0748729 -26.19198 -1.373819 43 6
1.0802679 -26.435984 6.1083207 17 14
1.0671118 -26.226301 -0.45816058 22 7
1.0700448 -26.41186 7.0828424 19 15
0.16640192 -4.2352147 -1.135698 3 0
1.0277926 -26.275902 0.45899829 65 8
0.1928298 -4.9518933 -1.1441011 2 1
1.01846 -26.272186 1.3779012 46 9
0.24252294 -6.2561193 -1.2169799 7 2
1.0150908 -26.303871 2.3030033 42 10
0.32341683 -8.4187727 -1.3343862 7 3
1.0063218 -26.315002 3.2334378 58 11
0.47730511 -12.538688 -1.5406723 8 4
0.99898487 -26.364214 4.178678 70 12
0.79891902 -21.084274 -1.8459586 7 5
0.98314166 -26.187588 -1.3734002 43 6
0.98725092 -26.42012 6.1038218 13 14
0.97533786 -26.223873 -0.45805588 25 7
0.97712827 -26.396128 7.0776658 19 15
0.15189406 -4.2434926 -1.1377686 3 0
0.93592322 -26.275333 0.4589285 61 8
0.17581868 -4.9603262 -1.1459007 2 1
0.93133181 -26.275419 1.3779012 46 9
0.2209609 -6.2647753 -1.2185063 7 2
0.92312658 -26.303272 2.3026547 42 10
0.29423445 -8.4257727 -1.3353248 6 3
0.91432363 -26.314386 3.2329502 58 11
0.43380803 -12.548212 -1.5416473 10 4
0.91094041 -26.349613 4.1758623 84 12
0.72566068 -21.096891 -1.8468301 7 5
0.89172328 -26.190859 -1.3734002 43 6
0.89449626 -26.407825 6.1002231 17 14
0.88748997 -26.200981 -0.45760211 22 7
0.88984942 -26.406948 7.0797367 19 15
0.1364563 -4.2246881 -1.1325922 3 0
0.84826535 -26.262302 0.45864925 65 8
0.15961936 -4.9686728 -1.1477003 2 1
0.83961022 -26.278509 1.3779012 46 9
0.19965164 -6.2831697 -1.2219409 6 2
0.83080435 -26.290401 2.3012602 42 10
0.26598066 -8.4168291 -1.3337604 7 3
0.82693124 -26.313305 3.2324629 58 11
0.39206979 -12.545614 -1.5411599 10 4
0.81834316 -26.332888 4.1727333 67 12
0.65090859 -21.063448 -1.8436925 7 5
0.8048653 -26.193672 -1.3734002 43 6
0.80679971 -26.40675 6.0993233 13 14
0.79590708 -26.199923 -0.45753229 22 7
0.79696918 -26.386723 7.073525 19 15
0.1225028 -4.2270489 -1.1331098 4 0
0.75612944 -26.249115 0.45837003 61 8
0.14205125 -4.9614081 -1.1459007 2 1
0.74787515 -26.281281 1.3779012 46 9
0.1785361 -6.2739849 -1.2200328 7 2
0.7428844 -26.267122 2.2989943 39 10
0.23648758 -8.4137583 -1.3331347 7 3
0.73473918 -26.304125 3.2310002 58 11
0.34860668 -12.558812 -1.5426223 8 4
0.72631276 -26.331635 4.1721077 70 12
0.58089042 -21.059515 -1.8431696 11 5
0.71310365 -26.184345 -1.3727723 43 6
0.71503896 -26.424988 6.102922 17 14
0.70455098 -26.206537 -0.45760211 22 7
0.70537251 -26.408653 7.078701 19 15
0.10809082 -4.2409687 -1.1367333 3 0
0.6643995 -26.247595 0.4583002 65 8
0.12463376 -4.9579778 -1.1450008 3 1
0.65573233 -26.267759 1.3770639 46 9
0.1569775 -6.2883086 -1.2227042 6 2
0.65153539 -26.283499 2.3002143 42 10
0.20731084 -8.422431 -1.3343862 7 3
0.64272457 -26.298592 3.2300253 58 11
0.30361006 -12.512324 -1.5367726 10 4
0.63439304 -26.334009 4.1721077 70 12
0.50694305 -21.043489 -1.8416008 7 5
0.62122095 -26.166706 -1.3717256 43 6
0.62224257 -26.403944 6.0975232 17 14
0.61288416 -26.200842 -0.45746249 22 7
0.61246663 -26.380053 7.0704188 19 15
0.093329281 -4.2432518 -1.1372509 4 0
0.57259589 -26.241756 0.45816058 61 8
0.10732689 -4.9583821 -1.1450008 2 1
0.56827813 -26.253815 1.3762264 51 9
0.13498469 -6.2868547 -1.2223225 7 2
0.5596993 -26.281628 2.2998657 42 10
0.17799301 -8.4270535 -1.3350118 8 3
0.55067438 -26.288765 3.2285628 64 11
0.26157656 -12.487461 -1.5336039 13 4
0.54697973 -26.332018 4.1714816 64 12
0.43352494 -21.047123 -1.8417752 11 5
0.52963817 -26.156736 -1.3710976 39 6
0.53444594 -26.394175 6.0948238 17 14
0.52567357 -26.186735 -0.45718324 22 7
0.52475226 -26.370352 7.0673132 19 15
0.079004958 -4.2300177 -1.1336274 3 0
0.4855001 -26.239511 0.45809075 61 8
0.091169201 -4.9742985 -1.1486001 3 1
0.48113996 -26.25156 1.3760171 51 9
0.11377939 -6.2676382 -1.2185063 7 2
0.47247058 -26.279354 2.2995169 42 10
0.15011792 -8.4315472 -1.3356376 7 3
0.46349365 -26.290447 3.2285628 64 11
0.22068961 -12.518032 -1.5372599 10 4
0.45931089 -26.313938 4.1683536 67 12
0.36266232 -20.986692 -1.8363715 7 5
0.44289535 -26.15835 -1.3710976 43 6
0.44671774 -26.384109 6.0921245 13 14
0.43869734 -26.180338 -0.45704362 22 7
0.4375605 -26.387398 7.071454 19 15
0.065214977 -4.2457094 -1.1377686 3 0
0.39824018 -26.224983 0.4578115 61 8
0.074673139 -4.9745736 -1.1486001 3 1
0.389442 -26.249086 1.3758078 51 9
0.093285538 -6.287612 -1.2223225 7 2
0.3850325 -26.260855 2.2977738 42 10
0.12221397 -8.4359493 -1.3362634 7 3
0.37630785 -26.29184 3.2285628 64 11
0.1769357 -12.514756 -1.5367726 11 4
0.36740252 -26.311432 4.1677275 64 12
0.29364932 -21.029613 -1.8400321 11 5
0.3562021 -26.163666 -1.3713069 39 6
0.35461974 -26.385508 6.0921245 17 14
0.34709525 -26.165712 -0.45676437 22 7
0.34509388 -26.361721 7.0642071 19 15
0.050324887 -4.2401156 -1.1362157 4 0
0.30669785 -26.226213 0.4578115 61 8
0.057263743 -4.9709063 -1.1477003 3 1
0.29781249 -26.250284 1.3758078 46 9
0.071225576 -6.2780833 -1.2204144 6 2
0.29336196 -26.262039 2.2977738 42 10
0.092593282 -8.4205217 -1.3337604 7 3
0.28444326 -26.285053 3.2275879 64 11
0.13316509 -12.507359 -1.5357976 11 4
0.27559376 -26.316502 4.1683536 64 12
0.22009134 -21.016565 -1.8388119 7 5
0.26479319 -26.156763 -1.3708882 43 6
0.26235601 -26.370996 6.0885253 17 14
0.25583833 -26.174765 -0.45690399 22 7
0.25285205 -26.339584 7.0579953 19 15
0.035524201 -4.2402658 -1.1362157 4 0
0.21505025 -26.215126 0.45760211 61 8
0.039910957 -4.971076 -1.1477003 3 1
0.20615108 -26.247169 1.3755983 51 9
0.049388207 -6.2881103 -1.2223225 7 2
0.20166032 -26.258919 2.2974253 42 10
0.063257679 -8.4286957 -1.3350118 7 3
0.19260466 -26.273977 3.2261257 64 11
0.089535005 -12.511717 -1.5362852 10 4
0.18373275 -26.317305 4.1683536 64 12
0.14280476 -20.979376 -1.8354999 10 5
0.17340723 -26.145544 -1.3702601 36 6
0.17022936 -26.36006 6.0858259 13 14
0.16448165 -26.177498 -0.45693889 25 7
0.16090435 -26.340305 7.0579953 19 15
0.020000741 -4.2442307 -1.1372509 4 0
0.12354035 -26.215717 0.45760211 61 8
0.022523506 -4.9633904 -1.1459007 3 1
0.11444223 -26.227757 1.3745518 51 9
0.026357142 -6.2921753 -1.2230858 7 2
0.10544676 -26.267452 2.2981226 42 10
0.03239473 -8.4367723 -1.3362634 7 3
0.10087108 -26.270517 3.2256379 64 11
0.045771271 -12.488132 -1.5333602 8 4
0.091855705 -26.313835 4.1677275 64 12
0.069565006 -20.977755 -1.8353256 7 5
0.077556811 -26.138016 -1.3698415 36 6
0.073645957 -26.372198 6.0885253 17 14
0.073069893 -26.165915 -0.4567295 25 7
0.068991289 -26.352301 7.0611014 19 15
0.0051877308 -4.2462068 -1.1377686 3 0
0.027456783 -26.215994 0.45760211 61 8
0.0043451376 -4.9790292 -1.1494999 3 1
0.018311476 -26.228001 1.3745518 46 9
0.004376567 -6.2686696 -1.2185063 7 2
0.013741308 -26.247736 2.2963796 42 10
0.0029502979 -8.4506617 -1.3384535 10 3
0.0045888908 -26.282623 3.2271006 64 11
-5.4518313e-07 -12.472336 -1.5314103 9 4
-0.0045855707 -26.286339 4.1633472 57 12
-0.0036612621 -20.987831 -1.8361971 10 5
-0.01368621 -26.138126 -1.3698415 39 6
-0.018403217 -26.360603 6.0858259 17 14
-0.022822076 -26.156008 -0.45655498 20 7
-0.027571363 -26.329193 7.0548897 19 15
-0.0096427063 -4.2500625 -1.1388038 3 0
-0.064048365 -26.211931 0.45753229 61 8
-0.013045288 -4.9829116 -1.1503997 3 1
-0.07322789 -26.223911 1.3743424 51 9
-0.01755945 -6.2882795 -1.2223225 7 2
-0.077842608 -26.235668 2.2953336 45 10
-0.026523447 -8.4427185 -1.337202 10 3
-0.087102689 -26.266598 3.2251506 64 11
-0.043480545 -12.456379 -1.5294603 10 4
-0.096400641 -26.301966 4.1658502 54 12
-0.076762371 -20.943857 -1.8323622 10 5
-0.020059779 -5.2241812 1.0154855 0 13
-0.10493886 -26.141914 -1.3700508 39 6
-0.11040005 -26.35648 6.0849261 17 14
-0.026673326 -6.1130109 -0.10670401 0 7
-0.11945729 -26.325073 7.0538545 19 15
-0.024389243 -4.234549 -1.1346627 3 0
-0.15549482 -26.203548 0.45739269 61 8
-0.030367529 -4.9711437 -1.1477003 3 1
-0.16476983 -26.223495 1.3743424 51 9
-0.039510459 -6.2881799 -1.2223225 7 2
-0.16944505 -26.239223 2.2956822 45 10
-0.055967908 -8.4386244 -1.3365762 10 3
-0.17876339 -26.262163 3.224663 64 11
-0.08701694 -12.46409 -1.5304353 10 4
-0.14978467 -20.931509 -1.8313165 10 5
-0.038294975 -5.2240791 1.0154855 0 13
-0.19619127 -26.141388 -1.3700508 36 6
-0.20240138 -26.355932 6.0849261 17 14
-0.047822531 -6.0888848 -0.10628515 20 7
-0.21125901 -26.312902 7.0507483 19 15
-0.039313499 -4.2498918 -1.1388038 3 0
-0.24692748 -26.198847 0.45732284 54 8
-0.047756836 -4.9749045 -1.1486001 3 1
-0.25614735 -26.206783 1.373505 34 9
-0.061497867 -6.2919302 -1.2230858 7 2
-0.26090112 -26.224527 2.2944622 18 10
-0.08532311 -8.4285011 -1.3350118 8 3
-0.27022755 -26.241529 3.2222257 35 11
-0.13035826 -12.447832 -1.5284854 8 4
-0.22244592 -20.893005 -1.8280045 3 5
-0.056529704 -5.2239141 1.0154855 0 13
-0.29457441 -26.370655 6.0885253 17 14
-0.069054633 -6.0866814 -0.10625025 26 7
-0.30299324 -26.302347 7.0481601 19 15
-0.053406596 -4.2497377 -1.1388038 3 0
-0.064002454 -4.9552331 -1.1441011 3 1
-0.08041665 -6.1430426 0.32197085 1 9
-0.082439654 -6.2975807 -1.2242306 8 2
-0.11329943 -8.4301472 -1.3353248 1 3
-0.084609732 -6.2147479 0.76314586 0 11
-0.36715031 -26.293652 4.1649117 57 12
-0.086271293 -6.1020794 -0.53391606 2 5
-0.3774232 -26.695631 5.1896234 4 13
-0.38156724 -26.338356 6.0813265 13 14
-0.089120656 -6.0784211 -0.10611063 20 7
-0.3905296 -26.322447 7.0538545 19 15
-0.068856962 -4.2417874 -1.1367333 3 0
-0.081426479 -4.9627733 -1.1459007 3 1
-0.10515918 -6.2756433 -1.2200328 7 2
-0.10378379 -6.1297045 0.53635645 10 10
-0.10412715 -6.0872207 -0.96426219 10 3
-0.10450348 -6.1092205 0.75022775 5 11
-0.10478081 -6.0635519 -0.74462175 12 4
-0.45879292 -26.284311 4.16366 67 12
-0.094046593 -5.2822809 1.0269341 0 13
-0.10917994 -6.0726838 -0.31830731 69 6
-0.47796169 -26.328987 6.0795269 12 14
-0.48254889 -26.32865 7.0559249 19 15
-0.083891347 -4.2531104 -1.1398392 3 0
-0.1219805 -6.1298532 0.10701816 25 8
-0.10016365 -4.9897184 -1.1521993 3 1
-0.12257968 -6.1063881 0.32008675 5 9
-0.12686531 -6.2654238 -1.2181247 5 2
-0.12485453 -6.1133685 0.53496194 2 10
-0.12549709 -6.0927448 -0.96520072 3 3
-0.1272646 -6.1266589 0.75242138 1 11
-0.12652254 -6.0909352 -0.74803412 5 4
-0.55070561 -26.290447 4.1649117 64 12
-0.12865937 -6.0913687 -0.53304452 4 5
-0.11223459 -5.2701435 1.0246444 0 13
-0.13076219 -6.0902367 -0.31924936 9 6
-0.56560171 -26.342846 6.0831265 17 14
-0.12951924 -5.9836869 -0.1044701 0 7
-0.57453817 -26.330666 7.0569601 19 15
-0.097861357 -4.2470145 -1.1382862 4 0
-0.11616233 -4.9659801 -1.1468004 5 1
-0.26683339 -11.407221 0.59799069 2 9
-0.14458902 -6.1354299 -1.1929379 1 2
-0.27025065 -11.383299 0.99619007 2 10
-0.20006026 -8.365304 -1.3253129 1 3
-0.27474806 -11.405017 1.4007664 2 11
-0.27340946 -11.34945 -1.3939416 3 4
-0.6376943 -26.280579 4.16366 60 12
-0.2764934 -11.313395 -0.99008924 4 5
-0.12777761 -5.191236 1.0093796 0 13
-0.27959335 -11.279052 -0.59129167 2 6
-0.65314871 -26.348618 6.0849261 17 14
-0.1326936 -5.3155346 -0.092811897 0 7
-0.66155732 -26.317032 7.0538545 19 15
-0.11158775 -4.2331486 -1.1346627 3 0
-0.29927254 -11.278313 0.19693296 4 8
-0.13252561 -4.9616718 -1.1459007 3 1
-0.30343017 -11.286428 0.59171039 4 9
-0.30540979 -11.28674 0.98782319 3 10
-0.2279074 -8.3685446 -1.3259387 2 3
-0.30930412 -11.284983 1.386142 2 11
-0.3105073 -11.257147 -1.3827296 3 4
-0.72969836 -26.288065 4.1652246 37 12
-0.31168565 -11.228767 -0.98276818 4 5
-0.14586893 -5.2221832 1.0154855 0 13
-0.31362805 -11.158275 -0.58501136 2 6
-0.74489588 -26.338385 6.0831265 13 14
-0.14772096 -5.1911077 -0.090647802 19 7
-0.75330698 -26.310698 7.0528193 19 15
-0.12694061 -4.2520432 -1.1398392 3 0
-0.3358787 -11.185254 0.19532733 4 8
-0.14984381 -4.9611793 -1.1459007 3 1
-0.34033915 -11.20345 0.58741885 3 9
-0.16786847 -5.5259757 -1.0746363 1 2
-0.34103397 -11.162135 0.97701591 2 10
-0.2577236 -8.3874416 -1.3290673 2 3
-0.34519958 -11.170737 1.3722489 2 11
-0.34622419 -11.140915 -1.3685929 3 4
-0.17085731 -5.4671488 0.86633414 0 12
-0.3472715 -11.112108 -0.9726581 2 5
-0.35024065 -11.083249 -0.58113849 1 6
-0.83633822 -26.320042 6.0795269 17 14
-0.16641466 -5.2085485 -0.090961948 37 7
-0.84489334 -26.300184 7.0507483 19 15
-0.14171746 -4.2496438 -1.1393216 4 0
-0.37324449 -11.134049 0.19445471 1 8
-0.16729262 -4.9645209 -1.1468004 3 1
-0.38025475 -11.226147 0.5886749 1 9
-0.18476357 -5.4547195 -1.0608981 1 2
-0.28956825 -8.4615116 -1.3409564 1 3
-0.38751063 -11.209075 -1.3771237 0 4
-0.18283473 -5.2096386 -0.27319372 1 6
-0.92765528 -26.301382 6.0759282 17 14
-0.18459503 -5.2079358 -0.090961948 26 7
-0.93697202 -26.304798 7.0528193 19 15
-0.15598172 -4.2336783 -1.1351804 4 0
-0.19477284 -5.2615943 0.091904372 1 8
-0.18534485 -4.9833803 -1.1512995 3 1
-0.19554943 -5.2331614 0.2744498 1 9
-0.20072407 -5.3716416 -1.0448701 1 2
-0.20069335 -5.3457999 0.46802634 1 10
-0.19911143 -5.2547388 0.64566386 0 11
-0.19934893 -5.2368512 -0.64347017 0 4
-0.20162217 -5.272378 0.83567303 0 12
-0.19886661 -5.2003207 -0.45530161 3 5
-0.20047967 -5.1949983 -0.27246103 2 6
-1.0199122 -26.309668 6.0786276 12 14
-0.20331782 -5.2212472 -0.091206275 5 7
-1.0279541 -26.28013 7.0471249 19 15
-0.17107064 -4.240829 -1.1372509 4 0
-0.2124906 -5.2448983 0.091625139 3 8
-0.20242161 -4.9749146 -1.1494999 3 1
-0.21471253 -5.2543983 0.27560118 2 9
-0.21787037 -5.331676 -1.0372378 1 2
-0.21477702 -5.2335868 0.45826489 1 10
-0.21539478 -5.2263618 -0.82847708 1 3
-0.21630299 -5.2262444 0.64225149 0 11
-0.21845157 -5.2559571 -0.64590758 1 4
-0.2215085 -5.3071675 0.84130466 0 12
-0.21817638 -5.2055283 -0.45582449 3 5
-0.21876773 -5.2196374 1.0154855 0 13
-0.21911582 -5.2062407 -0.27308905 2 6
-1.1119092 -26.309841 6.0795269 12 14
-0.22069442 -5.2005267 -0.09085723 1 7
-1.1200916 -26.286036 7.0497131 19 15
-0.18695226 -4.2478938 -1.1393216 4 0
-0.2302694 -5.2321377 0.091415711 3 8
-0.22047499 -4.9897528 -1.1530992 3 1
-0.23234455 -5.2376547 0.27476382 2 9
-0.23478951 -5.2720022 -1.0257893 1 2
-0.23360178 -5.2248034 0.45756766 1 10
-0.23809141 -5.3044724 -0.8409918 1 3
-0.23401076 -5.2135592 0.64078909 1 11
-0.23590355 -5.235332 -0.64347017 1 4
-0.23878245 -5.2787352 0.83692449 0 12
-0.23706834 -5.2206583 -0.45721903 3 5
-0.23718207 -5.2031107 1.0124326 1 13
-0.23801364 -5.2014112 -0.27287969 2 6
-0.24044977 -5.2346425 1.2097868 1 14
-0.24013042 -5.2276907 -0.091345899 0 7
-0.23927222 -5.1892362 1.3919289 2 15
-0.2023297 -4.2587929 -1.1424273 4 0
-0.25039715 -5.2512331 0.091764756 3 8
-0.23801668 -4.9733386 -1.1494999 3 1
-0.24986228 -5.2208514 0.27392641 2 9
-0.25545222 -5.3182144 -1.034948 1 2
-0.25126219 -5.2120152 0.45652178 2 10
-0.25336039 -5.2365246 -0.83035421 1 3
-0.25176999 -5.184907 0.63737667 1 11
-0.25470403 -5.226501 -0.64249521 1 4
-0.25643814 -5.262085 0.83442152 0 12
-0.25353861 -5.1839781 -0.45408139 3 5
-0.2540912 -5.1767592 1.0074716 7 13
-0.25292602 -5.1347194 -0.26942554 6 6
-0.25679648 -5.1948442 1.2007887 7 14
-0.25650129 -5.1888733 -0.0906827 1 7
-0.25499114 -5.140132 1.3789879 9 15
-0.21680041 -4.2503438 -1.1403568 4 0
-0.2648555 -5.1924577 0.090752512 15 8
-0.25490618 -4.9803071 -1.1512995 5 1
-0.26501125 -5.1601086 0.27078626 7 9
-0.27158928 -5.2702346 -1.0257893 1 2
-0.26719132 -5.1673322 0.45268691 5 10
-0.26705194 -5.1646366 -0.8190909 2 3
-0.26752263 -5.1562901 0.63396436 2 11
-0.26769951 -5.1423664 -0.63225818 5 4
-0.27171364 -5.2019773 0.82503545 0 12
-0.26944292 -5.1412787 -0.45042086 24 5
-0.27094847 -5.1700063 1.0063267 13 13
-0.27494603 -5.2114787 1.2048379 7 14
-0.27518672 -5.1816516 1.390376 15 15
-0.22995073 -4.2322402 -1.135698 4 0
-0.27165031 -4.9677119 -1.1486001 5 1
-0.28168532 -5.1512241 0.27036759 14 9
-0.28540838 -5.2026544 -1.0128142 2 2
-0.28366861 -5.1544814 0.45164105 7 10
-0.2843155 -5.1498661 -0.81690085 3 3
-0.28606823 -5.1652355 0.6351831 3 11
-0.28675002 -5.1612206 -0.63469559 7 4
-0.28962022 -5.2128816 0.8269127 1 12
-0.28660101 -5.1423464 -0.45059517 14 5
-0.28899306 -5.1690292 1.0063267 12 13
-0.28843033 -5.1428499 -0.2699489 31 6
-0.29335487 -5.2143784 1.2057376 7 14
-0.28968087 -5.1490726 -0.090019517 66 7
-0.29117045 -5.1594944 1.3846819 12 15
-0.24449965 -4.2275548 -1.1346627 4 0
-0.29892334 -5.1685748 0.090368561 29 8
-0.28721967 -4.95122 -1.1450008 5 1
-0.30094042 -5.172142 0.27151898 11 9
-0.30219489 -5.1781077 -1.0082349 2 2
-0.30259034 -5.1693721 0.45303556 11 10
-0.30116087 -5.1449513 -0.81627518 5 3
-0.30459151 -5.1880383 0.6381079 8 11
-0.3036299 -5.1562786 -0.63420814 13 4
-0.30769786 -5.209867 0.82659984 2 12
-0.30502081 -5.1492705 -0.45129246 35 5
-0.30520409 -5.1523647 1.0032737 13 13
-0.30607554 -5.1518335 -0.27047226 34 6
-0.31110796 -5.221158 1.2075372 7 14
-0.30705637 -5.1380496 -0.089844987 30 7
-0.30871648 -5.1507325 1.3826115 12 15
-0.25875339 -4.230577 -1.135698 6 0
-0.30509871 -4.9599133 -1.1472504 5 1
-0.31985432 -5.1850147 0.27225167 21 9
-0.32045257 -5.1947131 -1.0116693 10 2
-0.32010022 -5.1743059 0.4535585 15 10
-0.3193624 -5.1478119 -0.81690085 11 3
-0.32220638 -5.1790185 0.63713294 17 11
-0.3226158 -5.1710372 -0.63615805 23 4
-0.32575798 -5.2067895 0.82628691 7 12
-0.32371163 -5.1740813 -0.4535585 43 5
-0.32441676 -5.1708617 1.00709 14 13
-0.32355481 -5.1427608 -0.27005357 35 6
-0.32798237 -5.1986465 1.2025883 11 14
-0.32816124 -5.1727591 1.388823 29 15
-0.27389291 -4.2354312 -1.1372509 5 0
-0.33590466 -5.1803308 0.090612896 85 8
-0.32342237 -4.9743748 -1.1508496 13 1
-0.33639181 -5.1599507 0.27099562 31 9
-0.33947712 -5.2072763 -1.0143408 11 2
-0.3381595 -5.1731572 0.4535585 21 10
-0.33707207 -5.1427236 -0.81627518 13 3
-0.33806908 -5.1441879 0.63298941 20 11
-0.33909738 -5.1461101 -0.63323313 34 4
-0.34302029 -5.1918235 0.82409686 33 12
-0.34032646 -5.1510506 -0.45164105 37 5
-0.34322533 -5.1675072 -0.27141431 100 6
-0.34291863 -5.1357808 -0.089844987 76 7
-0.34505436 -5.1542344 1.3841642 44 15
-0.28801882 -4.224813 -1.1346627 4 0
-0.35466725 -5.1891017 0.090787418 93 8
-0.34011766 -4.9634943 -1.1486001 5 1
-0.35563347 -5.1766777 0.27193764 60 9
-0.36004373 -5.1748295 0.82159394 39 12
-0.36017427 -5.163682 -0.45286122 83 5
