# .PCD v0.7 - Point Cloud Data file format
VERSION 0.7
FIELDS x y z intensity ring
SIZE 4 4 4 4 2
TYPE F F F F U
COUNT 1 1 1 1 1
WIDTH 1215
HEIGHT 1
VIEWPOINT 0 0 0 1 0 0 0
POINTS 1215
DATA ascii
-0.096921377 -6.1019197 0.53391606 6 10
-0.09718132 -6.0517745 -0.9586305 2 3
-0.099011362 -6.0993853 0.74900907 2 11
-0.098753601 -6.0835066 -0.74705911 5 4
-0.43159038 -26.304529 4.1667891 64 12
-0.087988988 -5.2509685 1.0208282 0 13
-0.44579321 -26.329554 6.0795269 17 14
-0.45507914 -26.334936 7.057478 19 15
-0.078623958 -4.2493463 -1.1388038 3 0
-0.093699351 -4.9703531 -1.1477003 3 1
-0.11523116 -6.1125245 0.32040074 8 9
-0.11928572 -6.2694998 -1.2188879 6 2
-0.11746176 -6.1175003 0.53531057 6 10
-0.11828336 -6.104744 -0.96707797 5 3
-0.11974103 -6.124825 0.75217766 3 11
-0.11904261 -6.0890999 -0.74779034 10 4
-0.51842844 -26.283201 4.16366 67 12
-0.12101953 -6.0815616 -0.53217298 10 5
-0.10603198 -5.2820539 1.0269341 0 13
-0.1229573 -6.0724206 -0.31830731 21 6
-0.53302169 -26.324034 6.0786276 17 14
-0.12261748 -6.0038338 -0.10481916 0 7
-0.54248697 -26.337143 7.0585132 19 15
-0.092883602 -4.2567878 -1.1408744 3 0
-0.25209078 -11.461482 0.20010929 3 8
-0.11035408 -4.977808 -1.1494999 5 1
-0.25537914 -11.42946 0.59914213 2 9
-0.13788292 -6.1709313 -1.199807 1 2
-0.25714999 -11.419475 0.99932772 2 10
-0.19208039 -8.4642859 -1.3409564 1 3
-0.26176786 -11.44702 1.4058849 2 11
-0.26262242 -11.397361 -1.3997915 2 4
-0.61026317 -26.285181 4.1642857 64 12
-0.26590326 -11.367457 -0.99479562 2 5
-0.12308779 -5.2620459 1.0231179 0 13
-0.62509537 -26.329803 6.0804267 17 14
-0.14003552 -5.8554339 -0.1022362 0 7
-0.63385677 -26.311914 7.0523014 19 15
-0.10828757 -4.2486935 -1.1388038 3 0
-0.288582 -11.322598 0.19770086 4 8
-0.12752996 -4.9696002 -1.1477003 5 1
-0.29274508 -11.330664 0.59401315 4 9
-0.29608226 -11.306919 0.98956627 3 10
-0.22081204 -8.3766384 -1.3271902 2 3
-0.29811344 -11.309114 1.3890669 2 11
-0.29956189 -11.289217 -1.3866295 3 4
-0.7021181 -26.28684 4.1649117 57 12
-0.30263683 -11.256919 -0.98520851 4 5
-0.14290446 -5.2811847 1.0269341 0 13
-0.3054122 -11.214446 -0.58794218 2 6
-0.72159201 -26.327337 6.0804267 17 14
-0.14310633 -5.2212443 -0.091171376 14 7
-0.72612548 -26.324989 7.0564427 28 15
-0.12300581 -4.2444282 -1.1377686 3 0
-0.32681617 -11.209529 0.1957462 4 8
-0.14562942 -4.9652033 -1.1468004 3 1
-0.33132717 -11.229696 0.58877957 3 9
-0.1638563 -5.5535936 -1.0799789 1 2
-0.3326517 -11.208233 0.98102504 3 10
-0.24922661 -8.3481741 -1.3228099 2 3
-0.33676255 -11.214687 1.3776112 3 11
-0.33793932 -11.188834 -1.3744426 3 4
-0.79839993 -26.282116 4.1645989 3 12
-0.33835992 -11.138296 -0.97492415 2 5
-0.15953985 -5.2217832 1.0154855 0 13
-0.34032246 -11.075565 -0.58071983 1 6
-0.81336755 -26.320763 6.0795269 17 14
-0.16199379 -5.2126889 -0.091031753 37 7
-0.82285148 -26.329874 7.0585132 19 15
-0.13800913 -4.2497659 -1.1393216 4 0
-0.36352733 -11.134371 0.19445471 2 8
-0.16270415 -4.9568739 -1.1450008 3 1
-0.36611107 -11.094728 0.58176655 2 9
-0.18207562 -5.5176682 -1.0731099 1 2
-0.37104872 -11.185099 0.97910756 1 10
-0.28034005 -8.4064817 -1.3321961 1 3
-0.37304616 -11.128132 1.3671304 0 11
-0.37371933 -11.090372 -1.3624994 1 4
-0.38047427 -11.232627 -0.98329109 1 5
-0.90470403 -26.302183 6.0759282 17 14
-0.18150075 -5.2500634 -0.091694944 49 7
-0.91381323 -26.299812 7.0512662 19 15
-0.15277289 -4.2473269 -1.1388038 3 0
-0.19075926 -5.2777495 0.092183605 1 8
-0.18071271 -4.9757504 -1.1494999 3 1
-0.1941283 -5.3451357 0.28031141 1 9
-0.19517744 -5.3482714 -1.0402907 1 2
-0.19599408 -5.2945852 0.65053862 0 11
-0.19728698 -5.3044696 -0.6517573 0 4
-0.19801003 -5.3239098 0.84380758 0 12
-0.19603983 -5.246285 -0.45931077 1 5
-0.1954941 -5.1831965 -0.27183297 2 6
-0.99739635 -26.322231 6.0813265 17 14
-0.19777465 -5.2194595 -0.091171376 8 7
-1.0009491 -26.294708 7.0507483 19 15
-0.16698858 -4.2313251 -1.1346627 3 0
-0.20699774 -5.2451177 0.091625139 3 8
-0.19705774 -4.9712296 -1.1486001 3 1
-0.20809795 -5.2266808 0.27413577 2 9
-0.21211955 -5.3044004 -1.0318952 1 2
-0.20972969 -5.221828 0.45721903 1 10
-0.21309172 -5.3055353 -0.8409918 1 3
-0.21147038 -5.2423353 0.6442014 0 11
-0.21222454 -5.2383313 -0.64371389 2 4
-0.21546793 -5.2955542 0.83942741 0 12
-0.21288745 -5.2097354 -0.45617315 3 5
-0.21330132 -5.2198634 1.0154855 0 13
-0.21415541 -5.2184396 -0.27371708 2 6
-1.0846795 -26.318777 6.0813265 17 14
-0.21466921 -5.1867695 -0.090612896 2 7
-1.092245 -26.279474 7.0476427 19 15
-0.18126714 -4.2365384 -1.1362157 4 0
-0.2253055 -5.2443633 0.091625139 3 8
-0.21457806 -4.9744053 -1.1494999 3 1
-0.22651356 -5.2299132 0.2743451 2 9
-0.22970797 -5.303668 -1.0318952 1 2
-0.22842988 -5.2529516 0.46000803 1 10
-0.22850905 -5.2337136 -0.82972854 1 3
-0.22924615 -5.2296662 0.64273894 1 11
-0.22980975 -5.221694 -0.64176404 2 4
-0.23290598 -5.2710886 0.83567303 0 12
-0.2306903 -5.2209439 -0.45721903 3 5
-0.23152089 -5.2190871 1.0154855 0 13
-0.2316585 -5.2016983 -0.27287969 2 6
-1.1761922 -26.307045 6.0795269 4 14
-0.23304226 -5.1919813 -0.090717614 1 7
-0.2347942 -5.2107124 1.3976228 0 15
-0.19667968 -4.2493882 -1.1398392 3 0
-0.24398173 -5.2515354 0.091764756 3 8
-0.2315771 -4.9658394 -1.1477003 3 1
-0.24551526 -5.2450514 0.27518249 2 9
-0.24968871 -5.3342109 -1.0380009 1 2
-0.24564277 -5.22824 0.45791626 2 10
-0.24621792 -5.2210445 -0.8278513 1 3
-0.24749984 -5.2288342 0.64273894 1 11
-0.24869564 -5.2347398 -0.64347017 1 4
-0.25243264 -5.2939205 0.83942741 0 12
-0.24872312 -5.2161264 -0.45687038 3 5
-0.24748521 -5.1711826 1.0063267 5 13
-0.24655716 -5.1330299 -0.26932088 5 6
-0.25101236 -5.2068329 1.2034881 5 14
-0.25271058 -5.2230935 -0.091276079 1 7
-0.2501708 -5.1519732 1.3820938 9 15
-0.21103144 -4.2390285 -1.1372509 4 0
-0.25852016 -5.1747575 0.090438366 6 8
-0.24890924 -4.9650011 -1.1477003 5 1
-0.2606113 -5.1803308 0.27183297 4 9
-0.26712352 -5.3097782 -1.0334216 1 2
-0.26067686 -5.1636753 0.45233828 2 10
-0.26164308 -5.1649137 -0.8190909 1 3
-0.26292878 -5.1724277 0.63591433 1 11
-0.26302248 -5.1565213 -0.63396436 2 4
-0.26646829 -5.2062049 0.82566124 0 12
-0.26477388 -5.1554866 -0.45164105 10 5
-0.26513126 -5.1624455 1.0048002 13 13
-0.26354769 -5.1141858 -0.26837882 55 6
-0.26918685 -5.205925 1.2034881 7 14
-0.26721123 -5.1502881 -0.090019517 9 7
-0.27036205 -5.1935124 1.3934819 15 15
-0.22708204 -4.2478724 -1.1398392 4 0
-0.2672832 -4.983561 -1.1521993 5 1
-0.27718958 -5.1514683 0.27036759 15 9
-0.27938619 -5.175456 -1.0074716 2 2
-0.28046301 -5.1786008 0.45373279 7 10
-0.28067896 -5.1658926 -0.81940383 3 3
-0.28055164 -5.1635494 0.63493931 2 11
-0.28047982 -5.1456614 -0.63274568 7 4
-0.28420782 -5.1973534 0.82440978 0 12
-0.28287753 -5.1565199 -0.45181534 19 5
-0.28491452 -5.1771207 1.0078532 11 13
-0.28306112 -5.1271453 -0.26911151 38 6
-0.28880399 -5.2146325 1.2057376 7 14
-0.28709674 -5.1674614 1.3867525 12 15
-0.24070019 -4.2258377 -1.1341451 5 0
-0.29611298 -5.1827579 0.090612896 25 8
-0.2842086 -4.9592013 -1.1468004 5 1
-0.29629877 -5.1544056 0.27057692 10 9
-0.2985777 -5.1940498 -1.0112877 2 2
-0.29739061 -5.1576991 0.45198968 7 10
-0.29779726 -5.1491041 -0.81690085 3 3
-0.2998201 -5.1684318 0.63567054 6 11
-0.2992225 -5.1426167 -0.6325019 9 4
-0.30348542 -5.2002206 0.82503545 1 12
-0.30119321 -5.145504 -0.4509438 14 5
-0.30252495 -5.1682549 1.0063267 12 13
-0.30212721 -5.1460643 -0.27015823 31 6
-0.30677575 -5.209702 1.2048379 7 14
-0.30394045 -5.1462474 -0.089984603 22 7
-0.30557707 -5.1586609 1.3846819 12 15
-0.25618711 -4.2249274 -1.1341451 5 0
-0.30246416 -4.9737406 -1.1503997 5 1
-0.31501821 -5.1653013 0.27120495 17 9
-0.31749305 -5.1909609 -1.0109061 7 2
-0.31665859 -5.1625409 0.45251262 14 10
-0.31690973 -5.1519222 -0.81752664 10 3
-0.31761527 -5.1633916 0.6351831 14 11
-0.31802809 -5.1554108 -0.63420814 20 4
-0.32175782 -5.2011008 0.82534832 6 12
-0.32097802 -5.1592741 1.0048002 11 13
-0.32135963 -5.1509027 -0.27047226 35 6
-0.32647607 -5.218267 1.2070874 9 14
-0.32358241 -5.1575632 1.3846819 14 15
-0.27031991 -4.237597 -1.1377686 6 0
-0.33112815 -5.1766305 0.090543084 63 8
-0.31883147 -4.9707656 -1.1499498 15 1
-0.33240181 -5.1682148 0.27141431 22 9
-0.33493307 -5.2075706 -1.0143408 11 2
-0.33467036 -5.1893563 0.45495299 21 10
-0.33232877 -5.1390734 -0.81564939 10 3
-0.33435076 -5.1563668 0.63445187 20 11
-0.33538008 -5.158289 -0.63469559 23 4
-0.34028819 -5.219718 0.82847708 29 12
-0.33583084 -5.1513457 -0.45164105 32 5
-0.33675656 -5.1379099 -0.2698442 50 6
-0.33988264 -5.1580267 -0.090228938 76 7
-0.28536925 -4.2404819 -1.1388038 4 0
-0.34946597 -5.1794333 0.090612896 78 8
-0.33460197 -4.946291 -1.1445509 5 1
-0.34827739 -5.1351399 0.26973954 65 9
-0.35217842 -5.1926584 -1.0116693 21 2
-0.3497282 -5.1299987 -0.81439793 23 3
-0.35634029 -5.1869664 0.82347113 43 12
-0.35435674 -5.1580935 -0.45233828 85 5
-0.355239 -5.1446729 -0.2702629 71 6
-0.36080873 -5.2120991 1.2061876 47 14
-0.35677862 -5.1408501 -0.089949705 48 7
-0.35961941 -5.1687307 1.3883054 69 15
-0.30057901 -4.2452416 -1.1403568 4 0
-0.36796772 -5.1841664 0.090717614 93 8
-0.35380283 -4.9723063 -1.1508496 5 1
-0.36828187 -5.1757932 0.27193764 60 9
-0.37117496 -5.1908679 0.45530161 70 10
-0.37119451 -5.1657872 0.63591433 78 11
-0.37152493 -5.1578021 -0.63493931 77 4
-0.37509966 -5.2074289 0.8269127 51 12
-0.37250334 -5.1588125 -0.45251262 83 5
-0.37432131 -5.1714253 1.0078532 77 13
-0.37391794 -5.1533613 -0.27078626 89 6
-0.37772804 -5.1933155 1.2021384 37 14
-0.37425911 -5.1456218 -0.090054423 67 7
-0.37605533 -5.1578765 1.3857172 75 15
-0.31382117 -4.2229748 -1.1346627 3 0
-0.38486081 -5.1789289 0.090647802 100 8
-0.36913058 -4.9555593 -1.1472504 6 1
-0.3858999 -5.1685009 0.27162364 63 9
-0.38886094 -5.1959462 -1.0128142 67 2
-0.38750452 -5.165699 0.45320985 76 10
-0.38700324 -5.1590171 -0.81940383 78 3
-0.38906661 -5.1744251 0.63713294 81 11
-0.38817948 -5.1506038 -0.63420814 93 4
-0.39282903 -5.2001786 0.82597405 61 12
-0.38915434 -5.1396003 -0.4509438 89 5
-0.3917644 -5.1740713 1.0086164 77 13
-0.39130697 -5.1560769 -0.27099562 89 6
-0.39524341 -5.19592 1.2030382 42 14
-0.3925226 -5.1482716 -0.090124227 63 7
-0.3934688 -5.1488276 1.3836466 75 15
-0.32782295 -4.221911 -1.1346627 3 0
-0.40278068 -5.1755605 0.090612896 100 8
-0.38824567 -4.9775538 -1.1526492 13 1
-0.4031927 -5.1691842 0.27172831 72 9
-0.40639544 -5.1985426 -1.0135775 67 2
-0.40463203 -5.1643858 0.45320985 76 10
-0.40377158 -5.1418796 -0.81690085 65 3
-0.40743801 -5.1769934 0.63762045 79 11
-0.40709269 -5.1610904 -0.63567054 93 4
-0.41038153 -5.202786 0.82659984 61 12
-0.40619594 -5.1382813 -0.4509438 88 5
-0.40889266 -5.1609292 1.0063267 77 13
-0.40867096 -5.1467152 -0.27057692 93 6
-0.41492361 -5.2139349 1.2075372 54 14
-0.40990958 -5.1509285 -0.090194039 64 7
-0.41054094 -5.1474943 1.3836466 75 15
-0.3431839 -4.2284427 -1.1367333 3 0
-0.42026559 -5.1781826 0.0906827 100 8
-0.40285411 -4.9529314 -1.1472504 10 1
-0.42123362 -5.1677456 0.27172831 78 9
-0.4242197 -5.1931787 -1.0128142 77 2
-0.423307 -5.1708846 0.4539071 73 10
-0.42049828 -5.1365752 -0.81627518 65 3
-0.42330435 -5.1597862 0.63567054 79 11
-0.42355484 -5.1517987 -0.63469559 93 4
-0.43048671 -5.224946 0.83035421 73 12
-0.42478532 -5.1447744 -0.45164105 89 5
-0.42632794 -5.1634583 1.00709 84 13
-0.42540607 -5.1413507 -0.27036759 93 6
-0.43221155 -5.2125301 1.2075372 51 14
-0.42821911 -5.1534524 -0.090263851 64 7
-0.42850608 -5.1460299 1.3836466 75 15
-0.35801655 -4.236907 -1.1393216 4 0
-0.43833774 -5.1766839 0.0906827 100 8
-0.41898686 -4.9379029 -1.1441011 7 1
-0.43859375 -5.1582832 0.27130961 81 9
-0.44160515 -5.1937003 -1.0131959 67 2
-0.4404515 -5.1694522 0.4539071 73 10
-0.43876135 -5.1390123 -0.81690085 65 3
-0.441652 -5.1622329 0.63615805 79 11
-0.44085732 -5.1423774 -0.63372064 93 4
-0.44703132 -5.2037301 0.82722551 54 12
-0.44184324 -5.1433372 -0.45164105 89 5
-0.44468608 -5.1658502 1.0078532 86 13
-0.4442085 -5.1497841 -0.27089092 97 6
-0.44939673 -5.1993413 1.2048379 54 14
-0.44585985 -5.1479411 -0.090194039 67 7
-0.4471347 -5.1522007 1.3857172 75 15
-0.37144947 -4.2202358 -1.1351804 4 0
-0.45640525 -5.1751223 0.0906827 100 8
-0.43553472 -4.9286447 -1.1423014 7 1
-0.45659634 -5.1567206 0.27130961 84 9
-0.45903873 -5.1843047 -1.0116693 67 2
-0.45849377 -5.1678834 0.4539071 73 10
-0.45704716 -5.1413851 -0.81752664 56 3
-0.45966843 -5.1606598 0.63615805 81 11
-0.45915738 -5.144762 -0.63420814 93 4
-0.46413812 -5.1903329 0.82534832 50 12
-0.45979491 -5.1417637 -0.45164105 91 5
-0.4623647 -5.160356 1.00709 86 13
-0.46200341 -5.1462126 -0.27078626 93 6
-0.467893 -5.2016225 1.2057376 54 14
-0.46274993 -5.1344037 -0.089984603 69 7
-0.46511665 -5.1506085 1.3857172 75 15
-0.38617817 -4.2189131 -1.1351804 4 0
-0.47446716 -5.1734977 0.0906827 100 8
-0.4518449 -4.9173923 -1.140052 6 1
-0.47495958 -5.1590729 0.27151898 78 9
-0.477492 -5.1865802 -1.0124326 67 2
-0.47579837 -5.1583161 0.45320985 76 10
-0.47535485 -5.143692 -0.81815231 65 3
-0.47914398 -5.1748371 0.6381079 79 11
-0.47821343 -5.1549869 -0.63567054 93 4
-0.48225245 -5.1886811 0.82534832 54 12
-0.47789848 -5.1321087 -0.4509438 88 5
-0.48110375 -5.1665297 1.0086164 86 13
-0.47996375 -5.1445684 -0.27078626 89 6
-0.48568404 -5.1960773 1.2048379 56 14
-0.48104259 -5.1367397 -0.090054423 64 7
-0.48237112 -5.1412606 1.3836466 75 15
-0.40255448 -4.2270851 -1.1377686 3 0
-0.49176434 -5.163847 0.090543084 100 8
-0.46826622 -4.9080253 -1.1382524 8 1
-0.4933461 -5.1613607 0.27172831 78 9
-0.49762219 -5.1965218 -1.0147223 67 2
-0.49470085 -5.1565375 0.45320985 76 10
-0.49344835 -5.1340494 -0.81690085 65 3
-0.49720475 -5.1731329 0.6381079 81 11
-0.49658549 -5.1572385 -0.63615805 93 4
-0.50036091 -5.1869659 0.82534832 56 12
-0.49619287 -5.134376 -0.45129246 89 5
-0.4989011 -5.153007 1.0063267 87 13
-0.49881703 -5.1427746 -0.27078626 93 6
-0.50585622 -5.2058997 1.2075372 51 14
-0.49974331 -5.1429901 -0.090194039 67 7
-0.49993971 -5.1356997 1.3826115 75 15
-0.41654798 -4.2179642 -1.135698 3 0
-0.51108199 -5.1659904 0.090612896 100 8
-0.4854832 -4.898519 -1.1364527 8 1
-0.51135916 -5.1596069 0.27172831 81 9
-0.51575792 -5.1947532 -1.0147223 62 2
-0.51269829 -5.154779 0.45320985 79 10
-0.51136601 -5.1322961 -0.81690085 68 3
-0.51458472 -5.1554737 0.63615805 83 11
-0.51379609 -5.1475725 -0.6351831 93 4
-0.5198403 -5.198947 0.82753843 59 12
-0.51450938 -5.1365771 -0.45164105 92 5
-0.51649362 -5.1473279 1.0055635 88 13
-0.51656544 -5.1390152 -0.27068159 100 6
-0.52233744 -5.1964374 1.2057376 60 14
-0.51809353 -5.1451941 -0.090263851 69 7
-0.51863933 -5.1416121 1.3846819 75 15
-0.43171003 -4.2280908 -1.1388038 3 0
-0.52820981 -5.1642671 0.090612896 100 8
-0.50371099 -4.9162679 -1.1409518 8 1
-0.52683783 -5.1419878 0.27089092 88 9
-0.53278124 -5.191061 -1.0143408 77 2
-0.52978891 -5.1530504 0.45320985 76 10
-0.52797806 -5.1266422 -0.81627518 82 3
-0.53167826 -5.153739 0.63615805 79 11
-0.53004861 -5.1379423 -0.63420814 104 4
-0.5378902 -5.2050543 0.82878989 35 12
-0.53112942 -5.1308794 -0.45129246 89 5
-0.53335756 -5.1436334 1.0051818 66 13
-0.53257263 -5.1273413 -0.27015823 57 6
-0.53513753 -5.1520343 1.1958399 16 14
-0.53432453 -5.1354914 -0.090124227 71 7
-0.53448528 -5.128335 1.3815762 17 15
-0.44552606 -4.2247148 -1.1382862 4 0
-0.54575253 -5.1664639 0.0906827 26 8
-0.52206188 -4.9339495 -1.1454507 8 1
-0.54099399 -5.1043673 0.26900685 14 9
-0.5493713 -5.1834087 -1.0131959 36 2
-0.54371923 -5.1215463 0.45059517 13 10
-0.54727358 -5.1464705 -0.81971669 21 3
-0.54540062 -5.1203647 0.63225818 13 11
-0.54692662 -5.1261907 -0.63298941 31 4
-0.54786891 -5.1265416 0.81658798 9 12
-0.54369515 -5.0874867 -0.44763187 16 5
-0.54497862 -5.0910816 0.99525976 14 13
-0.54318428 -5.0659704 -0.26701808 12 6
-0.54874772 -5.1094451 1.1863918 11 14
-0.54861224 -5.0997953 -0.089530841 14 7
-0.54803717 -5.0861025 1.3707057 21 15
-0.45901513 -4.2116113 -1.1351804 4 0
-0.55575377 -5.0909758 0.089391224 24 8
-0.53673923 -4.9088516 -1.140052 8 1
-0.55619979 -5.0786228 0.26775077 18 9
-0.56254637 -5.1365733 -1.0044186 11 2
-0.5561617 -5.0701046 0.44623742 16 10
-0.5581156 -5.0797315 -0.80939204 11 3
-0.55805999 -5.0710731 0.62640852 18 11
-0.56003243 -5.0808415 -0.62762713 20 4
-0.56185889 -5.0892553 0.8109563 14 12
-0.55795252 -5.0538721 -0.44484288 23 5
-0.55864632 -5.0520725 0.9880091 19 13
-0.55668724 -5.0263262 -0.26502931 17 6
-0.56421638 -5.0861936 1.181443 14 14
-0.56022698 -5.0422001 -0.088553511 11 7
-0.56108654 -5.0419188 1.3593177 30 15
-0.47392923 -4.2119026 -1.135698 3 0
-0.5690425 -5.0492625 0.088693127 31 8
-0.55518264 -4.9185662 -1.1427513 8 1
-0.57100689 -5.0508504 0.26639003 22 9
-0.57407671 -5.0780044 -0.9933517 15 2
-0.57116711 -5.0443754 0.44414565 20 10
-0.57072425 -5.032608 -0.80219603 16 3
-0.5744133 -5.05726 0.62494606 20 11
-0.57305276 -5.0374355 -0.62250865 25 4
-0.57738423 -5.0676365 0.80782765 16 12
-0.5717563 -5.0182409 -0.4418796 33 5
-0.57182574 -5.0110798 0.9803766 21 13
-0.57128096 -4.9985557 -0.26366857 30 6
-0.57997262 -5.0667677 1.1773938 16 14
-0.57440853 -5.0104136 -0.088029936 15 7
-0.5764792 -5.0207372 1.3541414 32 15
-0.48885095 -4.212142 -1.1362157 4 0
-0.58343208 -5.0194373 0.088204466 34 8
-0.56829232 -4.8817563 -1.1346531 8 1
-0.58585948 -5.0250206 0.26513401 31 9
-0.58907121 -5.0525684 -0.98877227 16 2
-0.58599842 -5.0186033 0.44205391 22 10
-0.58576357 -5.0090032 -0.79875451 18 3
-0.58675271 -5.0098767 0.61934006 27 11
-0.58739513 -5.007803 -0.61909634 29 4
-0.59368688 -5.0538197 0.80595046 17 12
-0.58694476 -4.9964266 -0.44013649 37 5
-0.58702093 -4.9895549 0.97656047 24 13
-0.58545387 -4.9687619 -0.26220316 30 6
-0.59354424 -5.0298767 1.1692957 18 14
-0.58931255 -4.9865336 -0.087645985 19 7
-0.59263903 -5.0071831 1.3510355 37 15
-0.50423992 -4.2161641 -1.1377686 3 0
-0.59904665 -5.0014858 0.087925225 38 8
-0.58672148 -4.8913522 -1.1373526 10 1
-0.59886992 -4.9852681 0.26314521 27 9
-0.60576731 -5.042685 -0.9872458 17 2
-0.60208535 -5.0046587 0.44100806 24 10
-0.60088199 -4.9873161 -0.79562581 21 3
-0.60423636 -5.0077982 0.61934006 32 11
-0.6027289 -4.9879847 -0.61690265 30 4
-0.60990119 -5.0399494 0.80407327 18 12
-0.60198909 -4.9745674 -0.43839338 39 5
-0.60348898 -4.9796801 0.975034 25 13
-0.60086894 -4.9508266 -0.2613658 28 6
-0.60827732 -5.00456 1.1638968 18 14
-0.60526502 -4.9725356 -0.087436557 22 7
-0.60824388 -4.9897432 1.3468944 39 15
-0.51895362 -4.2143788 -1.1377686 3 0
-0.61748111 -5.0073023 0.088064842 44 8
-0.60068768 -4.8641315 -1.1315038 7 1
-0.61577731 -4.9791827 0.26293588 27 9
-0.61951005 -5.0093651 -0.9811399 21 2
-0.61857182 -4.9946175 0.44031078 27 10
-0.61707175 -4.9753866 -0.79406142 23 3
-0.61926597 -4.9859586 0.61690265 34 11
-0.61817658 -4.9700913 -0.61495274 31 4
-0.6270014 -5.0338693 0.80344748 28 12
-0.61737937 -4.9566193 -0.4369989 39 5
-0.61989576 -4.9697504 0.97350752 25 13
-0.6198799 -4.9625716 -0.26209849 33 6
-0.62525856 -4.9985385 1.1629969 21 14
-0.6218738 -4.9644399 -0.087331839 21 7
-0.6246959 -4.9799213 1.3448237 39 15
-0.53196251 -4.1991258 -1.1341451 4 0
-0.63294238 -4.9892464 0.087785602 51 8
-0.62159204 -4.8929367 -1.1387023 7 1
-0.63178235 -4.9731507 0.26272655 29 9
-0.6377362 -5.0130143 -0.98228478 25 2
-0.63096642 -4.9528995 0.43682456 25 10
-0.63293505 -4.9614449 -0.79218423 25 3
-0.63742185 -4.9896741 0.61763388 35 11
-0.63501805 -4.9639649 -0.6144653 34 4
-0.64093387 -5.0102091 0.80000597 24 12
-0.63391751 -4.9485054 -0.43647596 42 5
-0.63674015 -4.9636612 0.97274429 28 13
-0.63567203 -4.9484921 -0.26147047 31 6
-0.64220583 -4.9924603 1.1620972 21 14
-0.63578135 -4.9425168 -0.086982794 23 7
-0.63775074 -4.9509983 1.3375769 37 15
-0.54661661 -4.1972437 -1.1341451 4 0
-0.6479345 -4.9752221 0.087576173 56 8
-0.63630235 -4.8792539 -1.1360028 7 1
-0.64758641 -4.9590325 0.26209849 27 9
-0.65370321 -4.9990778 -0.97999501 25 2
-0.65032095 -4.9664707 0.43821907 27 10
-0.64630681 -4.9358149 -0.78842986 26 3
-0.65241641 -4.9757233 0.61617148 35 11
-0.65147525 -4.961832 -0.6144653 39 4
-0.65790331 -5.004024 0.79938018 24 12
-0.65014762 -4.9383607 -0.43577868 46 5
-0.65191567 -4.9517903 0.97083622 38 13
-0.65051162 -4.9344754 -0.26084244 32 6
-0.65952325 -4.9960995 1.1634469 23 14
-0.65303022 -4.9402676 -0.086982794 24 7
-0.6540153 -4.941082 1.3355063 40 15
-0.56206721 -4.2068963 -1.1372509 4 0
-0.66370589 -4.9610381 0.087366745 53 8
-0.65410662 -4.8827977 -1.1373526 10 1
-0.66489291 -4.9567413 0.26209849 30 9
-0.67027742 -4.9968824 -0.97999501 25 2
-0.66572607 -4.956389 0.43752185 32 10
-0.66247898 -4.9256978 -0.78717828 27 3
-0.66766089 -4.9576774 0.61422157 35 11
-0.66719967 -4.9477243 -0.61300284 39 4
-0.67483813 -4.9977818 0.79875451 26 12
-0.66738135 -4.9360614 -0.43577868 48 5
-0.66814405 -4.9417024 0.96930981 41 13
-0.6661253 -4.9203 -0.26021439 32 6
-0.6743412 -4.9744558 1.1589478 25 14
-0.66973263 -4.9339952 -0.086912982 23 7
-0.67203957 -4.9445114 1.3370593 44 15
-0.57853407 -4.2124643 -1.1393216 4 0
-0.68210828 -4.9666162 0.087506369 58 8
-0.67220831 -4.888207 -1.1391522 65 1
-0.680556 -4.9425192 0.26147047 36 9
-0.68697858 -4.9827228 -0.9777053 32 2
-0.68361533 -4.9519415 0.4373475 38 10
-0.68079817 -4.9251938 -0.7874912 30 3
-0.68333113 -4.9435182 0.61275911 36 11
-0.68283361 -4.9335666 -0.61154038 45 4
-0.69282192 -4.9993091 0.79938018 35 12
-0.68406039 -4.9297547 -0.43543008 50 5
-0.68733257 -4.9469986 0.97083622 46 13
-0.68195248 -4.902 -0.25937703 45 6
-0.69095588 -4.9603701 1.1562485 23 14
-0.68584853 -4.9237046 -0.086773366 25 7
-0.68796027 -4.932569 1.334471 30 15
-0.59431249 -4.2180705 -1.1413921 4 0
-0.69918925 -4.9561615 0.087366745 60 8
-0.69121081 -4.8934283 -1.1409518 18 1
-0.69838709 -4.9380145 0.2613658 37 9
-0.70326716 -4.9725194 -0.97617888 36 2
-0.69922012 -4.9376888 0.43630162 21 10
-0.6977095 -4.9208312 -0.78717828 45 3
-0.69781828 -4.9154301 0.60959053 27 11
-0.70007348 -4.9251347 -0.61080921 52 4
-0.70362574 -4.943933 0.79093277 13 12
-0.70099944 -4.9193249 -0.43473285 48 5
-0.69351822 -4.8668246 0.95557153 13 13
-0.6936996 -4.8620219 -0.25738826 17 6
-0.6867702 -4.8074541 1.1211561 7 14
-0.70275724 -4.91324 -0.086633749 26 7
-0.6805653 -4.7521663 1.2863307 14 15
-0.60617357 -4.1910086 -1.1346627 4 0
-0.70360416 -4.8646317 0.085796036 16 8
-0.69767433 -4.8176985 -1.1238555 5 1
-0.69441199 -4.789278 0.25362006 11 9
-0.71500057 -4.9252219 -0.96740162 15 2
-0.69094747 -4.7536988 0.42026496 10 10
-0.70862877 -4.8693714 -0.7793566 11 3
-0.68981582 -4.7400975 0.5881415 10 11
-0.70495391 -4.8381939 -0.60032845 16 4
-0.68580425 -4.7010207 0.75244987 8 12
-0.69369054 -4.7492728 -0.41991636 14 5
-0.67868155 -4.6408525 0.91168547 12 13
-0.68634111 -4.6875186 -0.24828181 10 6
-0.673576 -4.594738 1.0721167 9 14
-0.705401 -4.8118296 -0.08488851 8 7
-0.66460586 -4.5280428 1.2262847 14 15
-0.62046683 -4.1967278 -1.1367333 4 0
-0.68869406 -4.6525884 0.082096115 17 8
-0.6745075 -4.5512652 -1.0622189 3 1
-0.68244088 -4.5992641 0.24367623 12 9
-0.70511216 -4.7520556 -0.93381923 7 2
-0.67777216 -4.5623116 0.40353107 11 10
-0.69427973 -4.6678252 -0.74744397 8 3
-0.67746174 -4.5492935 0.56474262 12 11
-0.69054985 -4.6316381 -0.57497966 14 4
-0.67689216 -4.5346069 0.72616887 9 12
-0.68154532 -4.5657792 -0.4038797 16 5
-0.6659804 -4.4561777 0.87581331 12 13
-0.67387283 -4.5036144 -0.23865199 10 6
-0.66433251 -4.434566 1.0352248 9 14
-0.69258279 -4.6176391 -0.081502736 8 7
-0.653225 -4.3500543 1.1786621 12 15
-0.63626981 -4.2021761 -1.1388038 10 0
-0.67675686 -4.4643083 0.078815073 17 8
-0.67664647 -4.4583297 -1.0410734 11 1
-0.67448866 -4.4388866 0.23530249 11 9
-0.69633222 -4.5826416 -0.90100008 10 2
-0.67211872 -4.418098 0.39098063 11 10
-0.68588233 -4.5032859 -0.72147578 10 3
-0.66939801 -4.3899078 0.54524344 12 11
-0.68274659 -4.4722099 -0.55548048 13 4
-0.66884047 -4.3760009 0.70113939 8 12
-0.67159051 -4.3939934 -0.38888893 15 5
-0.65599209 -4.2869291 0.84299421 11 13
-0.66509086 -4.3413224 -0.23017356 10 6
-0.65676427 -4.2819753 1.0001323 9 14
-0.68350542 -4.4511418 -0.078605637 7 7
-0.64785689 -4.214088 1.1424273 14 15
-0.64767927 -4.1789308 -1.1331098 18 0
-0.67087311 -4.323595 0.076371737 14 8
-0.68023944 -4.3789148 -1.0230774 11 1
-0.66327584 -4.2648077 0.22619602 10 9
-0.68637747 -4.4133492 -0.86818099 10 2
-0.66546696 -4.2739806 0.37843022 10 10
-0.67391109 -4.3232498 -0.69300479 8 3
-0.66145456 -4.238482 0.52671933 10 11
-0.66893625 -4.2815146 -0.5320816 11 4
-0.65968984 -4.2175078 0.67610979 8 12
-0.66611373 -4.2537141 -0.37668711 14 5
-0.64908344 -4.1449604 0.81551766 11 13
-0.65549362 -4.1811218 -0.22179982 9 6
-0.64753377 -4.1256433 0.96414024 10 14
-0.67482734 -4.2946424 -0.075883061 7 7
-0.64094782 -4.0743971 1.1051573 13 15
-0.65844834 -4.1479087 -1.1253452 5 0
-0.66213441 -4.1711292 0.073718965 14 8
-0.67044032 -4.2186975 -0.98618543 12 1
-0.65556449 -4.1204495 0.21865964 9 9
-0.67722607 -4.251821 -0.83688831 10 2
-0.65665543 -4.1180458 0.36483395 11 10
-0.66888827 -4.1900554 -0.67204249 10 3
-0.65308928 -4.0910873 0.50868267 10 11
-0.66194797 -4.1419392 -0.51501989 12 4
-0.65131336 -4.0708375 0.65295756 8 12
-0.65574902 -4.0939784 -0.36274219 14 5
-0.64189053 -4.0029826 0.78804117 10 13
-0.64865345 -4.0406504 -0.21447276 10 6
-0.64224249 -3.9962547 0.93444669 10 14
-0.66506445 -4.1382608 -0.073160492 7 7
-0.63368547 -3.9386225 1.0689226 12 15
-0.65373236 -4.0273576 -1.0932516 3 0
-0.65496582 -4.0305085 0.071275629 14 8
-0.66399461 -4.0815701 -0.9546923 13 1
-0.6497941 -3.9898863 0.21185598 11 9
-0.66902643 -4.1079769 -0.80903018 11 2
-0.6453777 -3.9584141 0.350889 11 10
-0.66282636 -4.0609727 -0.6517061 10 3
-0.6469515 -3.9593647 0.49259594 12 11
-0.65533394 -4.006269 -0.49844566 12 4
-0.64388347 -3.9319642 0.63105673 9 12
-0.64620906 -3.9461658 -0.34984317 14 5
-0.63489711 -3.8728495 0.7628544 13 13
-0.64270049 -3.9161658 -0.20798311 10 6
-0.63628417 -3.8728423 0.9061029 10 14
-0.65621179 -3.9897797 -0.070577532 7 7
-0.62363619 -3.787591 1.0285469 14 15
-0.63490325 -3.8268483 -1.0394174 4 0
-0.64413065 -3.8782742 0.068622865 15 8
-0.65586388 -3.9446626 -0.92319912 15 1
-0.6446979 -3.8733244 0.20578501 11 9
-0.66402155 -3.9894202 -0.78613311 12 2
-0.6405257 -3.8441157 0.34095326 11 10
-0.65229714 -3.9105518 -0.62792808 10 3
-0.63853574 -3.8239393 0.47602168 12 11
-0.65065831 -3.8923552 -0.48455253 12 4
-0.63934743 -3.8205881 0.61353606 9 12
-0.63959229 -3.8220515 -0.33903584 15 5
-0.62765259 -3.7466881 0.73843086 13 13
-0.6339038 -3.7799556 -0.20086543 9 6
-0.63108635 -3.7591302 0.88000852 10 14
-0.6502496 -3.8691425 -0.068483248 9 7
-0.62210971 -3.6977575 1.0047356 15 15
-0.64276892 -3.7922287 -1.0306175 11 0
-0.63893104 -3.7655973 0.06666819 16 8
-0.64809209 -3.8155484 -0.89350557 13 1
-0.63379258 -3.7313621 0.19835329 10 9
-0.65753919 -3.8670783 -0.76247281 10 2
-0.63521773 -3.7318645 0.33119181 11 10
-0.64802575 -3.8030961 -0.61103308 11 3
-0.62851512 -3.6847093 0.45896 12 11
-0.64352512 -3.7687409 -0.46944076 12 4
-0.63472319 -3.7171931 0.59726685 9 12
-0.63413054 -3.7098169 -0.32927439 15 5
-0.61953521 -3.6206264 0.71400726 12 13
-0.62551391 -3.6517301 -0.19416642 11 6
-0.62543118 -3.6474242 0.8543641 12 14
-0.64279866 -3.7487092 -0.066388957 9 7
-0.61279815 -3.5700099 0.97057146 14 15
-0.64710641 -3.7385664 -1.0166413 13 0
-0.63095158 -3.6452343 0.064573906 16 8
-0.6414445 -3.7020109 -0.86741126 14 1
-0.62804025 -3.6208937 0.19259633 11 9
-0.65054637 -3.7467663 -0.7391941 13 2
-0.62845266 -3.615773 0.32108176 13 10
-0.64101446 -3.6880467 -0.59288669 11 3
-0.62575841 -3.5965533 0.44823548 13 11
-0.63183582 -3.6277344 -0.45213532 11 4
-0.62801671 -3.6020854 0.57912046 9 12
-0.62720853 -3.5937431 -0.31916434 14 5
-0.61533642 -3.5257189 0.69568962 14 13
-0.61905837 -3.5433931 -0.18851414 10 6
-0.61939454 -3.5416713 0.83006936 11 14
-0.6338107 -3.620379 -0.064155042 9 7
-0.60858268 -3.4727063 0.94468951 14 15
-0.63968825 -3.6241558 -0.98610061 12 0
-0.62697142 -3.5484879 0.062898472 16 8
-0.63671428 -3.5999634 -0.84401631 14 1
-0.62187344 -3.5124793 0.18694405 11 9
-0.6434586 -3.6343968 -0.71744186 12 2
-0.62235945 -3.5116541 0.31201756 12 10
-0.63594097 -3.5846465 -0.57661748 13 3
-0.61887157 -3.4848945 0.43458611 13 11
-0.62886059 -3.5375566 -0.44116706 12 4
-0.62051386 -3.4870715 0.56097406 9 12
-0.62236744 -3.497488 -0.31079736 15 5
-0.60698247 -3.4075797 0.67279255 12 13
-0.61389363 -3.4428983 -0.18328053 12 6
-0.61189318 -3.4282193 0.80397505 11 14
-0.6278038 -3.5138133 -0.062305093 10 7
-0.60301536 -3.3716738 0.91777241 14 15
-0.63418657 -3.5211339 -0.95866579 13 0
-0.62019485 -3.4400077 0.061013613 15 8
-0.63127935 -3.4979956 -0.82062149 14 1
-0.61637777 -3.4120147 0.18171045 12 9
-0.63764358 -3.5297334 -0.69721615 13 2
-0.61405087 -3.395746 0.30190748 13 10
-0.62874615 -3.4735522 -0.55909681 11 3
-0.61404455 -3.3889554 0.42288667 14 11
-0.62172109 -3.4279125 -0.42776144 11 4
-0.61786246 -3.4032528 0.54783356 10 12
-0.61321849 -3.3776734 -0.30033869 14 5
-0.60412967 -3.3243122 0.65676457 14 13
-0.60946441 -3.3503435 -0.17846562 10 6
-0.60989237 -3.3493741 0.78597897 11 14
-0.62070185 -3.4053669 -0.06042023 10 7
-0.5988304 -3.2821264 0.89396101 15 15
-0.6276238 -3.416296 -0.93071336 13 0
-0.61483848 -3.3434193 0.059338182 16 8
-0.62584686 -3.3999434 -0.79812634 14 1
-0.61105686 -3.3195961 0.17689554 11 9
-0.63146132 -3.4270871 -0.67737198 13 2
-0.60927695 -3.3034523 0.29388916 12 10
-0.62257779 -3.3722663 -0.54314053 13 3
-0.60783392 -3.2891891 0.41069973 13 11
-0.61960125 -3.3495941 -0.41825563 13 4
-0.61189771 -3.3079488 0.53281587 9 12
-0.61049509 -3.2971487 -0.29336622 17 5
-0.59426367 -3.2063606 0.63386756 12 13
-0.60366863 -3.2539358 -0.17344138 14 6
-0.60450149 -3.2552576 0.76438367 11 14
-0.61665684 -3.3207145 -0.058954231 10 7
-0.58923441 -3.1699617 0.86393797 14 15
-0.62389439 -3.3305359 -0.90793723 14 0
-0.60751295 -3.2430868 0.057592943 16 8
-0.61700583 -3.2905893 -0.77293181 14 1
-0.60642964 -3.2310717 0.17228998 12 9
-0.62747073 -3.3399637 -0.66058075 13 2
-0.60534 -3.2190661 0.28656808 14 10
-0.61550397 -3.2731159 -0.52749711 13 3
-0.60184628 -3.1974168 0.39948773 14 11
-0.6101231 -3.2382779 -0.40460625 13 4
-0.6073333 -3.2203817 0.51904958 10 12
-0.6049996 -3.2049382 -0.28534791 17 5
-0.59105414 -3.1310632 0.61936599 14 13
-0.59480226 -3.147902 -0.16789377 13 6
-0.5993585 -3.1689839 0.74458802 11 14
-0.61187834 -3.2320907 -0.057418417 11 7
-0.5887866 -3.1071475 0.8473736 15 15
-0.61683553 -3.2335672 -0.88205534 14 0
-0.60307783 -3.1584496 0.056126937 16 8
-0.61239213 -3.204195 -0.7531361 14 1
-0.59743929 -3.1230044 0.1666377 12 9
-0.61936063 -3.2375939 -0.64073664 12 2
-0.5980255 -3.1231132 0.27820113 13 10
-0.61019236 -3.1836445 -0.51341796 16 3
-0.59355563 -3.0939207 0.38681334 13 11
-0.60420269 -3.1464529 -0.39339426 13 4
-0.60067338 -3.1251285 0.5040319 10 12
-0.6013338 -3.1285644 -0.27872407 17 5
-0.58343518 -3.0325859 0.60028511 13 13
-0.59067994 -3.0673573 -0.1637069 14 6
-0.59049946 -3.0635426 0.72029328 11 14
-0.60573113 -3.1396146 -0.055812798 11 7
-0.58131427 -3.0102329 0.82149172 14 15
-0.61153185 -3.1460581 -0.85876161 17 0
-0.60187805 -3.093513 0.055009987 17 8
-0.60755509 -3.1197875 -0.73379034 15 1
-0.59381682 -3.0464056 0.16266017 12 9
-0.61563402 -3.1583323 -0.62547189 17 2
-0.5944255 -3.0466967 0.2715773 14 10
-0.60540003 -3.1000674 -0.50027746 15 3
-0.59140384 -3.0255902 0.37852621 14 11
-0.60107952 -3.0722425 -0.38437593 14 4
-0.59639353 -3.0454707 0.49151716 14 12
-0.59693509 -3.0482364 -0.27175158 18 5
-0.58268809 -2.9727333 0.58883661 13 13
-0.58523345 -2.9829612 -0.15931067 13 6
-0.58767176 -2.9926226 0.70409679 11 14
-0.60048825 -3.0550709 -0.054346792 12 7
-0.57839346 -2.9399467 0.80285674 15 15
-0.60337281 -3.0472562 -0.83236206 18 0
-0.59323519 -2.9933159 0.053264745 15 8
-0.60251647 -3.037365 -0.71489447 15 1
-0.58966631 -2.9698715 0.15868263 13 9
-0.60983169 -3.071435 -0.60868073 18 2
-0.5871926 -2.9547112 0.26355895 14 10
-0.60388559 -3.0359378 -0.49026567 16 3
-0.58645678 -2.9456322 0.36877668 14 11
-0.59434223 -2.9825191 -0.37340769 13 4
-0.59156495 -2.9658813 0.47900239 13 12
-0.58886534 -2.9523466 -0.26338464 17 5
-0.57960892 -2.9032967 0.57547992 17 13
-0.58390188 -2.9221439 -0.15617052 14 6
-0.58626652 -2.9313154 0.69014984 12 14
-0.59387851 -2.966681 -0.052810986 11 7
-0.56967545 -2.8431997 0.7769748 15 15
-0.60331482 -2.9921069 -0.81786817 19 0
-0.59102118 -2.9285011 0.052147791 17 8
-0.59922427 -2.9664776 -0.69869798 15 1
-0.58578116 -2.8973196 0.15491444 12 9
-0.60809982 -3.0077095 -0.59646893 18 2
-0.58327639 -2.8823426 0.25728375 14 10
-0.59408796 -2.9331362 -0.47399649 16 3
-0.58017075 -2.8618553 0.35853964 13 11
-0.59369683 -2.9259539 -0.36658302 13 4
-0.58933312 -2.9018509 0.46899059 14 12
-0.58647799 -2.8877923 -0.25780669 17 5
-0.57448798 -2.8262236 0.56059688 16 13
-0.57817096 -2.8418014 -0.15198363 14 6
-0.5786078 -2.8414118 0.66945434 11 14
-0.59224945 -2.9058075 -0.051763836 12 7
-0.56878471 -2.7881935 0.76248091 15 15
-0.59821719 -2.9142871 -0.79716271 18 0
-0.58353287 -2.840234 0.050611977 17 8
-0.5946601 -2.8918333 -0.6816017 15 1
-0.58009863 -2.8210211 0.1509369 13 9
-0.60355526 -2.9324965 -0.58196747 18 2
-0.58207846 -2.8256495 0.25240302 16 10
-0.59155869 -2.8691344 -0.46398467 17 3
-0.57812089 -2.8014891 0.35122749 14 11
-0.58864814 -2.8499894 -0.35732093 15 4
-0.5853675 -2.8341062 0.45835301 15 12
-0.58445454 -2.8271935 -0.25257733 17 5
-0.5708248 -2.7588348 0.54762185 17 13
-0.57269627 -2.7654471 -0.1480061 12 6
-0.57626212 -2.780221 0.65550733 10 14
-0.58727157 -2.8333368 -0.050507262 12 7
-0.56625521 -2.7295446 0.74695182 16 15
-0.59495407 -2.8478861 -0.77956301 17 0
-0.58149791 -2.7834749 0.049634643 17 8
-0.58789402 -2.8116386 -0.66315573 14 1
-0.57439607 -2.7446923 0.14695938 13 9
-0.60090816 -2.8688819 -0.56975567 17 2
-0.57803929 -2.7573001 0.24647643 14 10
-0.58728921 -2.8014233 -0.45334715 17 3
-0.57354814 -2.7335017 0.34294036 14 11
-0.58340871 -2.778084 -0.34854636 15 4
-0.57981682 -2.7585864 0.446464 15 12
-0.57463193 -2.7315497 -0.24421038 15 5
-0.56542063 -2.6877635 0.53388357 16 13
-0.570342 -2.7088091 -0.14507528 13 6
-0.56980693 -2.7039273 0.63796121 14 14
-0.58147585 -2.756917 -0.04918088 12 7
-0.55822307 -2.644383 0.72417569 15 15
-0.58994722 -2.777868 -0.76092798 18 0
-0.58040124 -2.7305722 0.048727117 17 8
-0.58513421 -2.7504807 -0.64920872 15 1
-0.57066321 -2.6801598 0.14360988 13 9
-0.59406441 -2.7900651 -0.55449098 18 2
-0.57306087 -2.6891148 0.24054985 15 10
-0.58470285 -2.7413983 -0.44396105 16 3
-0.5656805 -2.649946 0.33270332 13 11
-0.57734179 -2.7022619 -0.33928427 15 4
-0.57415926 -2.6850727 0.43488789 17 12
-0.57618779 -2.6945589 -0.24107277 16 5
-0.55877525 -2.6109018 0.51900047 18 13
-0.56306094 -2.6286836 -0.14088841 14 6
-0.56167656 -2.6199877 0.61861545 16 14
-0.5759936 -2.6844833 -0.047924306 13 7
-0.55609292 -2.5895321 0.70968187 39 15
-0.58087599 -2.6889303 -0.73711663 18 0
-0.57133514 -2.6425304 0.047191311 18 8
-0.58071864 -2.6836629 -0.63391209 15 1
-0.56606477 -2.6137352 0.1401557 18 9
-0.58884037 -2.7188985 -0.54075271 18 2
-0.56851584 -2.6228414 0.23479758 22 10
-0.57751662 -2.662122 -0.43144631 17 3
-0.56397653 -2.5975182 0.32636613 28 11
-0.57454622 -2.6439753 -0.33221585 16 4
-0.57009441 -2.6212838 0.42487606 39 12
-0.56568909 -2.6010282 -0.23288015 26 5
-0.56415576 -2.5896237 -0.13889964 38 6
-0.56915969 -2.6082153 -0.046597924 15 7
-0.57782346 -2.6302805 -0.72158754 19 0
-0.55994409 -2.5467734 0.045515876 33 8
-0.57416868 -2.6092975 -0.61681581 17 1
-0.58270407 -2.6458864 -0.52663285 20 2
-0.55922711 -2.5371761 0.22730216 46 10
-0.5727632 -2.5964329 -0.42112163 30 3
-0.57135171 -2.585742 -0.32514745 30 4
-0.56831205 -2.5698569 -0.23026547 62 5
-0.5702011 -2.5762675 0.51289463 81 13
-0.56368911 -2.5447388 -0.13659686 84 6
-0.57700133 -2.6026847 0.61546606 63 14
-0.56353313 -2.5398374 -0.045411162 22 7
-0.56871343 -2.56107 0.70295256 93 15
-0.57818848 -2.5824335 0.13869029 96 9
-0.57417923 -2.5624273 0.22974254 63 10
-0.57015198 -2.5423751 -0.41267416 63 3
-0.57601011 -2.566401 0.32295379 84 11
-0.59098017 -2.6288037 0.42675328 99 12
-0.57684183 -2.5659134 -0.23009115 83 5
-0.57703614 -2.5646846 0.51098651 97 13
-0.57520074 -2.5544467 -0.1372249 65 6
-0.58608264 -2.6006548 0.61546606 63 14
-0.56931597 -2.5241997 -0.045166828 69 7
-0.57764989 -2.5590689 0.70295256 90 15
-0.58590811 -2.5809686 -0.70916426 82 0
-0.5870139 -2.5837524 0.046248876 89 8
-0.58718586 -2.5824227 -0.611417 97 1
-0.58498394 -2.5706623 0.13816693 95 9
-0.5888716 -2.5856619 0.23200859 98 10
-0.58560765 -2.5692594 -0.41736722 99 3
-0.58893877 -2.5817928 0.32514745 86 11
-0.58408743 -2.5584664 -0.32222256 75 4
-0.5979529 -2.6170962 0.42518893 95 12
-0.58712649 -2.5697114 -0.2306141 100 5
-0.58686006 -2.5664825 0.51174974 100 13
-0.58099514 -2.5387948 -0.13649218 77 6
-0.59515715 -2.598593 0.61546606 63 14
-0.58571851 -2.5553327 -0.045760211 56 7
-0.58830673 -2.5645692 0.70502311 90 15
-0.59665054 -2.5864375 -0.71123475 103 0
-0.59692907 -2.5855844 0.046318687 90 8
-0.59839016 -2.5898509 -0.61366647 99 1
-0.59575325 -2.5763884 0.13858563 96 9
-0.6033023 -2.6090348 -0.52052695 95 2
-0.59699529 -2.5797086 0.23165996 85 10
-0.59457284 -2.5671995 -0.41736722 100 3
-0.59973997 -2.5874567 0.3261224 86 11
-0.59705186 -2.5738158 -0.32441622 95 4
-0.60261762 -2.595751 0.42206025 95 12
-0.59429067 -2.5598831 -0.22991684 96 5
-0.59670347 -2.5682428 0.51251298 100 13
-0.59302014 -2.5503688 -0.1372249 87 6
-0.60334098 -2.5927038 0.61456627 64 14
-0.59372759 -2.5493772 -0.045690399 80 7
-0.59813225 -2.5662627 0.70605838 90 15
-0.60214853 -2.5692916 -0.70709366 93 0
-0.60686415 -2.587379 0.046388499 89 8
-0.60742682 -2.5877464 -0.61366647 100 1
-0.6042937 -2.5743988 0.13858563 95 9
-0.6133042 -2.6107354 -0.52129018 94 2
-0.60326076 -2.5659719 0.2306141 85 10
-0.60443503 -2.568954 -0.41799295 100 3
-0.60876864 -2.5853474 0.3261224 84 11
-0.60921949 -2.5852411 -0.3261224 99 4
-0.61484659 -2.6091199 0.4245632 99 12
-0.60413718 -2.5616715 -0.23026547 99 5
-0.60566509 -2.5661442 0.51251298 99 13
-0.60237819 -2.5502272 -0.13732956 87 6
-0.61418056 -2.5981681 0.61636591 63 14
-0.59987801 -2.5376642 -0.045515876 79 7
-0.60397059 -2.5529852 0.70295256 90 15
-0.61200851 -2.5709329 -0.70812893 93 0
-0.61358863 -2.5775707 0.046248876 89 8
-0.61600459 -2.5857179 -0.61366647 100 1
-0.61512893 -2.5800447 0.13900432 95 9
-0.62332463 -2.6123979 -0.52205342 97 2
-0.61406499 -2.5716019 0.23131134 88 10
-0.61019796 -2.5554073 -0.41611573 100 3
-0.61918396 -2.5910373 0.32709733 101 11
-0.61732751 -2.5812762 -0.32587865 88 4
-0.62395042 -2.6069579 0.4245632 95 12
-0.61400402 -2.5634222 -0.2306141 99 5
-0.61325693 -2.5603032 0.51174974 99 13
-0.61176264 -2.5520999 -0.1375389 90 6
-0.62461144 -2.6036968 0.61816549 61 14
-0.60966659 -2.5394437 -0.045585688 84 7
-0.61378086 -2.5546181 0.70398778 90 15
-0.62143767 -2.5726449 -0.70916426 93 0
-0.62258202 -2.5754132 0.046248876 89 8
-0.62227738 -2.5721872 -0.61096704 100 1
-0.62368137 -2.5779908 0.13900432 95 9
-0.63475627 -2.6217654 -0.52434313 97 2
-0.62352753 -2.5734243 0.23165996 88 10
-0.6200453 -2.5571012 -0.41674146 100 3
-0.62447965 -2.5734274 0.32514745 86 11
-0.62633389 -2.5791054 -0.32587865 92 4
-0.63352418 -2.6087136 0.42518893 95 12
-0.62344205 -2.5652442 -0.23096271 99 5
-0.62311798 -2.5619621 0.51251298 99 13
-0.61972278 -2.5460677 -0.13732956 87 6
-0.63277394 -2.5977139 0.6172657 61 14
-0.62045038 -2.5471225 -0.045760211 87 7
-0.62407917 -2.5600765 0.70605838 90 15
-0.63225478 -2.5779653 -0.71123475 93 0
-0.63207173 -2.5772188 0.046318687 89 8
-0.63266206 -2.5776799 -0.61276668 100 1
-0.63077086 -2.5680397 0.13858563 95 9
-0.64296651 -2.6157207 -0.5235799 94 2
-0.63441068 -2.5789707 0.2323572 91 10
-0.63040912 -2.5627038 -0.41799295 100 3
-0.6349079 -2.5790527 0.3261224 86 11
-0.63345855 -2.5712321 -0.32514745 99 4
-0.64357251 -2.610322 0.42581466 95 12
-0.63143814 -2.5591836 -0.2306141 100 5
-0.63255101 -2.563694 0.51327622 99 13
-0.62911981 -2.5478768 -0.1375389 87 6
-0.63951492 -2.5880337 0.61546606 64 14
-0.62885773 -2.5429997 -0.045725305 84 7
-0.63393956 -2.5616329 0.70709366 87 15
-0.64080024 -2.5758543 -0.71123475 95 0
-0.64299625 -2.5827587 0.046458308 90 8
-0.6435402 -2.5830195 -0.61456627 99 1
-0.6406976 -2.5696979 0.13879497 96 9
-0.6497373 -2.6059542 -0.52205342 97 2
-0.64392382 -2.580719 0.23270583 82 10
-0.64030772 -2.5643208 -0.41861868 100 3
-0.64294416 -2.572969 0.32563493 86 11
-0.64291197 -2.5709307 -0.32539117 92 4
-0.65076184 -2.6003945 0.4245632 95 12
-0.64379054 -2.5725379 -0.23200859 100 5
-0.64340371 -2.5690882 0.51480269 99 13
-0.63898122 -2.5495398 -0.13774826 87 6
-0.64949292 -2.5895662 0.61636591 63 14
-0.63578349 -2.5330312 -0.045585688 82 7
-0.64287788 -2.5594044 0.70709366 87 15
-0.64694995 -2.5623634 -0.70812893 95 0
-0.6529879 -2.5843759 0.046528116 89 8
-0.65446335 -2.5883148 -0.61636591 100 1
-0.65162343 -2.5751908 0.13921365 96 9
-0.65979314 -2.6074769 -0.52281672 95 2
-0.64999396 -2.5668674 0.23165996 85 10
-0.651196 -2.5697296 -0.41987014 100 3
-0.65582544 -2.5861025 0.32758483 86 11
-0.65383524 -2.5763676 -0.32636613 95 4
-0.65983498 -2.5981073 0.4245632 95 12
-0.64884305 -2.5548265 -0.2306141 99 5
-0.65333486 -2.5706322 0.51556593 100 13
-0.64787668 -2.5472939 -0.13774826 87 6
-0.66045129 -2.5948374 0.61816549 61 14
-0.64560878 -2.534672 -0.045655496 84 7
-0.64989913 -2.5496571 0.70502311 90 15
-0.65684932 -2.5638323 -0.70916426 93 0
-0.65902507 -2.5704587 0.046318687 89 8
-0.66155738 -2.5784638 -0.61456627 100 1
-0.66214502 -2.5807543 0.13963234 96 9
-0.67084366 -2.6127644 -0.52434313 94 2
-0.65994143 -2.5684421 0.23200859 82 10
-0.65622681 -2.5521357 -0.41736722 100 3
-0.665838 -2.5876424 0.32807231 101 11
-0.66381425 -2.5779145 -0.3268536 92 4
-0.67041719 -2.6035566 0.42581466 91 12
-0.6607402 -2.564122 -0.23165996 99 5
-0.65936273 -2.5569293 0.51327622 99 13
-0.65676481 -2.5450168 -0.13774826 92 6
-0.67047924 -2.5962899 0.61906528 63 14
-0.6540103 -2.5325172 -0.045655496 84 7
-0.65931737 -2.5512285 0.70605838 90 15
-0.66871071 -2.572742 -0.71227002 93 0
-0.66855162 -2.57213 0.046388499 89 8
-0.66912293 -2.5724838 -0.61366647 100 1
-0.67114931 -2.5784273 0.13963234 96 9
-0.6819393 -2.618006 -0.52586961 94 2
-0.6699084 -2.5699785 0.2323572 88 10
-0.6666795 -2.5575914 -0.41861868 100 3
-0.67040664 -2.5700536 0.3261224 86 11
-0.67235941 -2.5756989 -0.3268536 92 4
-0.68050009 -2.6050229 0.42644039 95 12
-0.66968638 -2.5618 -0.23165996 99 5
-0.66783792 -2.554729 0.51327622 99 13
-0.66418928 -2.5389605 -0.1375389 90 6
-0.6780982 -2.5902817 0.61816549 63 14
-0.66487354 -2.5379565 -0.045795113 84 7
-0.67017847 -2.5563862 0.70812893 87 15
-0.67822266 -2.5742464 -0.71330529 93 0
-0.67956519 -2.5775149 0.046528116 89 8
-0.67909282 -2.5739009 -0.61456627 100 1
-0.67810619 -2.5683444 0.13921365 96 9
-0.68961489 -2.6119339 -0.52510637 95 2
-0.68046266 -2.575448 0.23305444 88 10
-0.67762262 -2.5628877 -0.41987014 100 3
-0.68242037 -2.5792122 0.32758483 101 11
-0.67931384 -2.5656602 -0.32587865 92 4
-0.68958896 -2.6026318 0.42644039 95 12
-0.68021917 -2.5672686 -0.2323572 99 5
-0.67876458 -2.559973 0.51480269 99 13
-0.67509717 -2.5443485 -0.1379576 87 6
-0.68613547 -2.584132 0.6172657 63 14
-0.67475563 -2.5394852 -0.045864921 84 7
-0.68009073 -2.5577655 0.70916426 87 15
-0.6882022 -2.5755963 -0.71434063 95 0
-0.68959147 -2.5789909 0.046597924 92 8
-0.69008791 -2.5790451 -0.61636591 99 1
-0.68706733 -2.5659616 0.13921365 95 9
-0.696697 -2.6019251 -0.5235799 94 2
-0.69047993 -2.5769062 0.23340309 88 10
-0.68861073 -2.5681388 -0.42112163 100 3
-0.69244826 -2.5806489 0.32807231 86 11
-0.68929523 -2.5671079 -0.32636613 85 4
-0.69764477 -2.5963933 0.42581466 95 12
-0.68917686 -2.5648787 -0.2323572 100 5
-0.68973535 -2.5651717 0.51632917 100 13
-0.6850121 -2.5458336 -0.13816693 92 6
-0.69616526 -2.5854845 0.61816549 64 14
-0.68049431 -2.5255296 -0.045655496 82 7
-0.68901461 -2.5553761 0.70916426 87 15
-0.69516742 -2.5657196 -0.71227002 93 0
-0.69858938 -2.5765679 0.046597924 90 8
-0.70010722 -2.5803816 -0.6172657 99 1
-0.69915974 -2.5751126 0.13984169 96 9
-0.70680374 -2.6032667 -0.52434313 94 2
-0.69738102 -2.5667894 0.23270583 91 10
-0.69757146 -2.5657191 -0.42112163 100 3
-0.7024945 -2.582047 0.32855979 86 11
-0.70033753 -2.5723476 -0.32734108 88 4
-0.71085745 -2.6091895 0.42831761 99 12
-0.69647652 -2.5546465 -0.23165996 99 5
-0.69868529 -2.5627482 0.51632917 100 13
-0.69494599 -2.5472806 -0.13837628 90 6
-0.70723873 -2.5905585 0.61996508 63 14
-0.69246787 -2.5347128 -0.045864921 82 7
-0.69691181 -2.549228 0.70812893 87 15
-0.70354259 -2.5594292 -0.71123475 93 0
-0.70545906 -2.5664012 0.046458308 89 8
-0.71117723 -2.585438 -0.61906528 99 1
-0.7102645 -2.5803587 0.14026037 96 9
-0.71946865 -2.6120152 -0.52663285 94 2
-0.70890188 -2.5718994 0.23340309 88 10
-0.70486963 -2.5555284 -0.41987014 100 3
-0.71150333 -2.5795791 0.32855979 101 11
-0.7093128 -2.5698872 -0.32734108 88 4
-0.7231161 -2.6181171 0.43019485 99 12
-0.7064513 -2.5560408 -0.23200859 99 5
-0.70702696 -2.5563858 0.51556593 99 13
-0.70321214 -2.5408666 -0.13816693 90 6
-0.71776915 -2.5917051 0.62086493 72 14
-0.70291269 -2.5380616 -0.045969639 87 7
-0.70683771 -2.5505035 0.70916426 87 15
-0.71662068 -2.5718455 -0.7153759 93 0
-0.71593446 -2.5676506 0.046528116 89 8
-0.7164588 -2.5677977 -0.61546606 100 1
-0.71712041 -2.5701687 0.13984169 96 9
-0.72858196 -2.609488 -0.52663285 95 2
-0.72002 -2.5770845 0.23410031 91 10
-0.71378553 -2.5530524 -0.41987014 100 3
-0.71881366 -2.5693073 0.32758483 86 11
-0.71872717 -2.5672703 -0.32734108 88 4
-0.73118585 -2.6117723 0.42956907 95 12
-0.71644384 -2.5573959 -0.2323572 100 5
-0.71594584 -2.5539024 0.51556593 99 13
-0.71099824 -2.5345504 -0.1379576 92 6
-0.72944504 -2.5985649 0.62311447 81 14
-0.7112276 -2.5336676 -0.045934737 84 7
-0.71573609 -2.5480206 0.70916426 87 15
-0.72559351 -2.5693283 -0.7153759 93 0
-0.72661912 -2.5729599 0.046667732 90 8
-0.72708988 -2.5729091 -0.6172657 99 1
-0.72500074 -2.5638061 0.13963234 95 9
-0.73875529 -2.610707 -0.52739608 92 2
-0.72901106 -2.5745556 0.23410031 91 10
-0.7254771 -2.5620751 -0.42174736 100 3
-0.72841221 -2.5707293 0.32807231 101 11
-0.72507048 -2.5572336 -0.32636613 92 4
-0.73921967 -2.6054034 0.42894334 95 12
-0.72754323 -2.5625463 -0.23305444 99 5
-0.72548348 -2.5552914 0.51632917 99 13
-0.72049099 -2.536021 -0.13816693 92 6
-0.73699212 -2.5923827 0.62221462 87 14
-0.72170866 -2.5369394 -0.046039447 87 7
-0.72674203 -2.5529387 0.71123475 84 15
-0.73517221 -2.5706227 -0.71641117 93 0
-0.7377972 -2.5780981 0.046807356 90 8
-0.73821235 -2.5778491 -0.61906528 99 1
-0.73614645 -2.5689397 0.14005104 96 9
-0.7452457 -2.6006935 -0.52586961 95 2
-0.73974138 -2.5797849 0.23479758 88 10
-0.73550534 -2.5633245 -0.42237309 101 3
-0.74066842 -2.5796192 0.32953474 101 11
-0.73618507 -2.5623186 -0.32734108 88 4
-0.74612659 -2.5952134 0.42769188 95 12
-0.73713815 -2.5639493 -0.23340309 100 5
-0.73548436 -2.5565169 0.51709241 99 13
-0.73154885 -2.5411682 -0.13858563 87 6
-0.74603677 -2.5897944 0.62221462 87 14
-0.72668272 -2.5209546 -0.045795113 82 7
-0.73779035 -2.557811 0.71330529 81 15
-0.74091482 -2.5569077 -0.71330529 93 0
-0.74567789 -2.5716658 0.046737548 90 8
-0.74937874 -2.5827427 -0.62086493 99 1
-0.74622273 -2.5701904 0.14026037 95 9
-0.75650871 -2.605618 -0.52739608 94 2
-0.74540669 -2.5657074 0.2337517 97 10
-0.74555194 -2.5645354 -0.42299888 100 3
-0.75188649 -2.5846422 0.33050969 86 11
-0.74623424 -2.5635452 -0.32782856 85 4
-0.75849563 -2.6039722 0.42956907 99 12
-0.74274027 -2.5498831 -0.2323572 100 5
-0.74770004 -2.5652428 0.51938212 100 13
-0.7426514 -2.5462685 -0.13900432 92 6
-0.75616437 -2.5909159 0.62311447 81 14
-0.73884159 -2.5299196 -0.046004545 84 7
-0.74237967 -2.5403857 0.70916426 84 15
-0.75201231 -2.5617204 -0.7153759 95 0
-0.75239551 -2.5613728 0.046597924 89 8
-0.75729018 -2.5763717 -0.61996508 99 1
-0.75744426 -2.5752344 0.14067906 96 9
-0.76670736 -2.6067281 -0.52815932 94 2
-0.75548327 -2.5669124 0.23410031 82 10
-0.75115061 -2.5505478 -0.42112163 100 3
-0.75978142 -2.5781937 0.33002222 101 11
-0.75630134 -2.5647326 -0.32831606 88 4
-0.76646227 -2.5975196 0.42894334 95 12
