# .PCD v0.7 - Point Cloud Data file format
VERSION 0.7
FIELDS x y z intensity ring
SIZE 4 4 4 4 2
TYPE F F F F U
COUNT 1 1 1 1 1
WIDTH 1288
HEIGHT 1
VIEWPOINT 0 0 0 1 0 0 0
POINTS 1288
DATA ascii
-1.174788 11.04748 2.5648918 0 14
-0.23873293 2.2449987 -0.039407536 1 7
-0.24575368 2.314873 0.62375391 1 15
-0.26023376 2.4842916 -0.6693061 19 0
-0.25291458 2.4144199 0.042374443 1 8
-0.26085413 2.4944265 -0.57902402 20 1
-0.2488602 2.3837557 0.12560631 1 9
-0.26334554 2.5267649 -0.49381369 19 2
-0.25299045 2.4315362 0.2138802 1 10
-0.25675851 2.4677517 -0.39296341 21 3
-0.2450783 2.3594916 0.29126775 0 11
-0.2569522 2.4780045 -0.30589208 17 4
-0.24875437 2.4030452 0.38263875 1 12
-0.25579864 2.4753127 -0.21771504 18 5
-0.24358208 2.3570955 0.46061292 1 13
-0.25476217 2.4694867 -0.13010719 22 6
-1.1349494 11.0203 2.5576935 0 14
-0.24439216 2.377106 -0.041711252 1 7
-0.24477397 2.3848999 0.64238888 1 15
-0.25900948 2.5543327 -0.68794107 19 0
-0.24730393 2.4431415 0.042863112 1 8
-0.25723973 2.5457323 -0.59072149 19 1
-0.24376561 2.4123878 0.12707172 1 9
-0.25969324 2.5745049 -0.50297254 18 2
-0.24293011 2.4125381 0.21213706 1 10
-0.2548607 2.5354593 -0.40360096 20 3
-0.24040861 2.3958857 0.29565504 0 11
-0.25265279 2.5223408 -0.31125432 17 4
-0.2439348 2.4353054 0.38764465 1 12
-0.25353494 2.5356224 -0.22294438 19 5
-0.23964308 2.4009094 0.46900854 1 13
-0.25188246 2.5279961 -0.13314268 17 6
-1.098786 11.047465 2.5630925 0 14
-0.2464031 2.4773974 -0.043456491 1 7
-0.24602488 2.4779735 0.66723549 1 15
-0.25460726 2.6013653 -0.70036435 19 0
-0.24465421 2.4996734 0.043840446 1 8
-0.25448149 2.6047564 -0.60421854 19 1
-0.241935 2.4808099 0.13063055 1 9
-0.25526944 2.622292 -0.51213133 19 2
-0.24105941 2.4807949 0.21806367 1 10
-0.25180125 2.5913415 -0.41236129 18 3
-0.23859528 2.4598958 0.30345467 0 11
-0.25059912 2.5883682 -0.3192977 18 4
-0.24645409 2.5501826 0.40579104 1 12
-0.25080609 2.5999537 -0.22852236 18 5
-0.2377129 2.4642248 0.4812203 1 13
-0.25038868 2.6003881 -0.13691087 17 6
-1.0595424 11.023889 2.5567937 0 14
-0.23775557 2.4782424 -0.043456491 1 7
-0.23958281 2.5018942 0.67344719 1 15
-0.25107044 2.6560471 -0.71485823 19 0
-0.24156296 2.5602376 0.044887587 1 8
-0.25196472 2.6754746 -0.62041503 20 1
-0.24000226 2.5532253 0.13439874 1 9
-0.25318718 2.6934907 -0.52586961 19 2
-0.23915872 2.549026 0.22399026 1 10
-0.24791069 2.6472743 -0.42112163 19 3
-0.23776579 2.5437257 0.31369171 0 11
-0.24727944 2.6504989 -0.3268536 17 4
-0.24670778 2.6493707 0.42143452 1 12
-0.24523163 2.6385062 -0.23183426 17 5
-1.0219972 10.995914 2.1466014 0 13
-0.24610735 2.6529529 -0.13963234 16 6
-1.0217712 11.035282 2.5585933 0 14
-0.23278317 2.5188813 -0.044154592 1 7
-0.23120353 2.5065625 0.67448246 1 15
-0.24605279 2.7088954 -0.72883451 17 0
-0.23660475 2.6048782 0.045655496 1 8
-0.24772562 2.7326207 -0.63346219 18 1
-0.23432849 2.5898521 0.13628285 1 9
-0.24790476 2.7452385 -0.5357917 18 2
-0.23267531 2.581635 0.22677925 1 10
-0.24351606 2.7071881 -0.43050769 19 3
-0.23315388 2.5919909 0.31954145 0 11
-0.24370646 2.7146142 -0.33465323 17 4
-0.24294147 2.7167406 -0.23863243 18 5
-0.97785115 10.956566 2.1382058 0 13
-0.24311496 2.7294335 -0.14360988 16 6
-0.98235583 11.0506 2.5612926 0 14
-0.22930175 2.5794339 -0.045201734 1 7
-0.2306466 2.5997202 0.69932908 1 15
-0.2423093 2.7751718 -0.74643415 17 0
-0.23365152 2.6814294 0.046981879 1 8
-0.24344912 2.7995181 -0.64875883 19 1
-0.23082311 2.6543264 0.13963234 1 9
-0.2454491 2.8282351 -0.55181968 18 2
-0.22950798 2.6499195 0.23270583 1 10
-0.23865686 2.7611592 -0.43895519 17 3
-0.22842824 2.6482053 0.32636613 0 11
-0.23920263 2.7787783 -0.34245288 17 4
-0.23959519 2.7890348 -0.24490763 16 5
-0.22823331 2.6622238 0.51938212 1 13
-0.23869413 2.7899652 -0.14675003 16 6
-0.23159163 2.7125216 0.62851328 1 14
-0.22573934 2.6439767 -0.046318687 1 7
-0.23173936 2.719852 0.73142266 1 15
-0.24020186 2.8664808 -0.77076316 18 0
-0.23143815 2.7618978 0.048378069 2 8
-0.24033558 2.8741045 -0.66585511 18 1
-0.23085766 2.7665749 0.14549398 2 9
-0.24176659 2.9034212 -0.56632113 18 2
-0.23411608 2.8174906 0.24734798 1 10
-0.23620646 2.8426473 -0.45178279 18 3
-0.23440908 2.8269951 0.3483026 1 11
-0.23588002 2.8507762 -0.35122749 17 4
-0.23617966 2.8604889 0.45459861 1 12
-0.23607421 2.8653095 -0.25153148 17 5
-0.23681344 2.8742816 0.56059688 3 13
-0.23402379 2.8464766 -0.14968085 14 6
-0.23900633 2.9133232 0.67485321 2 14
-0.22923425 2.800205 -0.049041264 1 7
-0.23655744 2.895859 0.77852774 7 15
-0.23549706 2.9269562 -0.78680992 17 0
-0.23587742 2.938098 0.051449694 9 8
-0.23590417 2.9448564 -0.6820516 17 1
-0.23313352 2.9166822 0.15334436 9 9
-0.23631205 2.9629586 -0.57776964 17 2
-0.23364133 2.9294722 0.25710943 10 10
-0.23239443 2.9202514 -0.46398467 17 3
-0.23192395 2.9208028 0.35975835 7 11
-0.23094384 2.9149067 -0.35902712 16 4
-0.23397894 2.9597573 0.47024205 9 12
-0.23202495 2.9415922 -0.25815532 17 5
-0.22874227 2.9064453 0.56670272 14 13
-0.23046969 2.9349248 -0.15428641 16 6
-0.23280397 2.9646509 0.68655062 12 14
-0.22367625 2.8548148 -0.049983691 4 7
-0.23009174 2.9971423 -0.8054449 17 0
-0.2322344 3.0389693 -0.7036469 17 1
-0.22730124 2.9812446 0.15669388 20 9
-0.23125887 3.0401511 -0.5926528 18 2
-0.2260769 2.9720285 0.26076996 17 10
-0.22736794 2.9959326 -0.47587368 16 3
-0.22481482 2.9691396 0.36560807 18 11
-0.22683866 3.0028296 -0.36975163 14 4
-0.22743233 3.0177193 0.47931525 16 12
-0.22572418 3.0020263 -0.26338464 16 5
-0.22484432 2.9973207 0.58425713 20 13
-0.22656554 3.0273678 -0.15910132 15 6
-0.22484298 3.0043509 0.69554865 15 14
-0.21991207 2.9453518 -0.051554412 12 7
-0.22343478 2.999583 0.8059625 16 15
-0.22600417 3.0923741 -0.83080912 18 0
-0.22175115 3.0414627 0.053229842 16 8
-0.22618428 3.1097696 -0.71984333 16 1
-0.22200906 3.059746 0.16077606 15 9
-0.22604342 3.1153479 -0.60715425 17 2
-0.22136807 3.0582862 0.26826537 16 10
-0.22179253 3.0716152 -0.48776269 16 3
-0.220348 3.059042 0.3765763 15 11
-0.22152288 3.08284 -0.37950116 14 4
-0.22230284 3.1012859 0.49245578 17 12
-0.22208062 3.098186 -0.27175158 17 5
-0.21802025 3.0490022 0.59417921 17 13
-0.22026189 3.0879059 -0.16224147 13 6
-0.22074622 3.1023457 0.71804374 14 14
-0.21421148 3.0179467 -0.052810986 12 7
-0.21789758 3.0774627 0.82666808 16 15
-0.21789077 3.1316884 -0.84116197 15 0
-0.21750088 3.1339834 0.054835461 18 8
-0.22044097 3.1844158 -0.73693967 19 1
-0.21710637 3.1441882 0.16517229 15 9
-0.22111872 3.202296 -0.62394547 19 2
-0.21712485 3.1524615 0.27645802 15 10
-0.21729623 3.1630244 -0.50215465 16 3
-0.2137405 3.1192057 0.38388845 15 11
-0.21644485 3.1667745 -0.3897382 14 4
-0.21684934 3.1808751 0.50497049 16 12
-0.21668424 3.1784534 -0.27872407 17 5
-0.21297053 3.1320114 0.6102072 17 13
-0.21596807 3.1843047 -0.16726573 13 6
-0.21701723 3.2080896 0.74233848 16 14
-0.21067631 3.1224241 -0.054626033 12 7
-0.21415763 3.1822891 0.85462052 16 15
-0.20963149 3.1729105 -0.8520323 8 0
-0.21287178 3.2305012 0.056510892 17 8
-0.21571581 3.282393 -0.75943476 17 1
-0.21139443 3.2166376 0.16894048 14 9
-0.21661535 3.3049188 -0.64378959 17 2
-0.21157846 3.2367022 0.28377908 14 10
-0.2112679 3.2406402 -0.51435655 14 3
-0.2090324 3.2150166 0.39558792 15 11
-0.21155408 3.2625954 -0.40143764 14 4
-0.21179686 3.2663398 0.51842386 14 12
-0.21201894 3.2786019 -0.28743961 16 5
-0.209364 3.2463684 0.63234103 16 13
-0.21049106 3.2727375 -0.1718713 12 6
-0.21093412 3.2885618 0.76078445 13 14
-0.2044175 3.1869648 -0.055742987 11 7
-0.20952213 3.2755218 0.87946719 15 15
-0.20579468 3.2893074 -0.88309062 3 0
-0.20790237 3.3229957 0.058116514 17 8
-0.20968266 3.3608885 -0.77743083 16 1
-0.20611694 3.3130391 0.17396474 14 9
-0.2092132 3.3722773 -0.65676457 17 2
-0.2066752 3.3408277 0.29284328 14 10
-0.20686196 3.3438466 -0.53062576 13 3
-0.2037484 3.3028705 0.40631241 14 11
-0.20524552 3.3365891 -0.410456 13 4
-0.20547403 3.3498697 0.53156441 11 12
-0.20641069 3.3747785 -0.29580659 16 5
-0.2031526 3.3215091 0.64684254 15 13
-0.20547371 3.369108 -0.17689554 13 6
-0.20452175 3.3631587 0.77788073 12 14
-0.19934249 3.2874603 -0.057488225 12 7
-0.20368259 3.368793 0.9043138 16 15
-0.20173898 3.4056799 -0.91414887 4 0
-0.20195991 3.4195197 0.059791945 17 8
-0.2041347 3.46665 -0.80172557 18 1
-0.20029433 3.401432 0.1785703 13 9
-0.20343632 3.4650671 -0.67470068 18 2
-0.19967106 3.411109 0.29894418 12 10
-0.20071179 3.4392054 -0.54564345 13 3
-0.1979841 3.4026487 0.41849938 14 11
-0.19922966 3.4343913 -0.42239916 13 4
-0.20031376 3.4530795 0.54783356 11 12
-0.20027909 3.4629636 -0.30347627 17 5
-0.19833866 3.4397981 0.6697396 16 13
-0.19932932 3.4675093 -0.18202448 11 6
-0.19969288 3.4844766 0.80577469 13 14
-0.19370188 3.3799386 -0.059093848 11 7
-0.19736105 3.4543128 0.92708987 15 15
-0.19447142 3.4893048 -0.93640739 21 0
-0.19529198 3.5040278 0.061257947 17 8
-0.19847599 3.5723777 -0.8260203 19 1
-0.19460724 3.5137856 0.18443193 14 9
-0.19718289 3.5716107 -0.69530803 15 2
-0.19389294 3.5231905 0.30870563 13 10
-0.19451681 3.5345268 -0.5606612 12 3
-0.19235271 3.5063562 0.43117377 13 11
-0.19369178 3.542068 -0.43556106 13 4
-0.19363387 3.5523803 0.56347704 10 12
-0.19316289 3.5551565 -0.31149462 15 5
-0.19119033 3.5188515 0.68500435 15 13
-0.1938771 3.579834 -0.1878861 11 6
-0.1942302 3.5979819 0.83186901 12 14
-0.18770522 3.4884217 -0.060978711 12 7
-0.19171579 3.5745838 0.95918339 16 15
-0.18350671 3.5015054 -0.93951315 10 0
-0.18806696 3.6005428 0.062933378 16 8
-0.18671477 3.5866716 -0.82916957 10 1
-0.18813485 3.6261399 0.19029355 12 9
-0.19123854 3.6859608 -0.71744186 15 2
-0.18704315 3.6173317 0.31689829 11 10
-0.18685503 3.625931 -0.57505316 12 3
-0.18499999 3.6021655 0.44287321 13 11
-0.18700781 3.6537426 -0.44921044 12 4
-0.18787484 3.6832402 0.58412635 12 12
-0.18763077 3.691117 -0.32334781 16 5
-0.18508634 3.6410625 0.70866466 16 13
-0.18663345 3.6842136 -0.19332905 10 6
-0.18638663 3.6920586 0.85346431 13 14
-0.18075259 3.5929086 -0.062793761 11 7
-0.18445934 3.6794205 0.98713589 16 15
-0.17076498 3.5040843 -0.94003081 8 0
-0.18114211 3.7170222 0.064957857 15 8
-0.17835155 3.672945 -0.84896529 3 1
-0.18088213 3.7384903 0.19615518 12 9
-0.18349324 3.8062563 -0.74072057 11 2
-0.18066706 3.7612796 0.3294487 12 10
-0.17998621 3.7607639 -0.59632826 11 3
-0.17830926 3.7257242 0.45798501 13 11
-0.17935914 3.7614462 -0.46237233 13 4
-0.17970289 3.7825308 0.59976977 9 12
-0.17964272 3.7952378 -0.332412 14 5
-0.17728792 3.7593806 0.73156172 15 13
-0.17912877 3.8125565 -0.20002805 10 6
-0.17813726 3.8056202 0.87955862 12 14
-0.17335153 3.7033806 -0.064713523 9 7
-0.17719494 3.7996867 1.0192294 15 15
-0.15870772 3.5085187 -0.94106609 6 0
-0.17399922 3.8614933 0.067471005 14 8
-0.17485067 3.8955071 -0.90025413 3 1
-0.17270866 3.8628347 0.20264484 11 9
-0.17573111 3.9304354 -0.76476252 11 2
-0.17267878 3.8773317 0.33955875 12 10
-0.17289706 3.8975363 -0.61791623 11 3
-0.17096081 3.8691401 0.47553423 13 11
-0.17124566 3.8909848 -0.47821537 11 4
-0.1717215 3.917361 0.62104493 9 12
-0.17267691 3.9391561 -0.34496242 16 5
-0.16964568 3.8855052 0.75598526 14 13
-0.17154709 3.9448531 -0.20693639 10 6
-0.17058688 3.9386089 0.9101519 12 14
-0.1649484 3.8238614 -0.066807814 9 7
-0.16923635 3.939276 1.0564994 14 15
-0.14605768 3.4994004 -0.93847787 5 0
-0.16583262 3.9899473 0.069704913 16 8
-0.16479644 3.9817648 -0.92004979 18 1
-0.16465271 3.9951212 0.20955318 11 9
-0.16831687 4.0840282 -0.79452866 12 2
-0.16404399 3.9973533 0.35001746 12 10
-0.1641292 4.0165396 -0.63668835 10 3
-0.16229704 3.9887204 0.49015856 12 11
-0.16384903 4.0442853 -0.4969832 13 4
-0.16282247 4.0363626 0.63981706 9 12
-0.16310047 4.0432549 -0.35402662 15 5
-0.16128266 4.0155444 0.7811721 13 13
-0.16280264 4.0711551 -0.21353073 9 6
-0.16187574 4.0657482 0.93939561 10 14
-0.15651122 3.9482975 -0.06897191 9 7
-0.15959927 4.0440812 1.0844518 14 15
-0.13391449 3.5018194 -0.93899554 6 0
-0.15677321 4.1183901 0.07193882 17 8
-0.15185657 4.0076318 -0.92589855 10 1
-0.15714994 4.1473279 0.21750826 11 9
-0.15790664 4.1866078 -0.81437284 12 2
-0.15562169 4.1452346 0.3629165 12 10
-0.15497711 4.1473722 -0.65733767 10 3
-0.15383148 4.1360579 0.50819516 11 11
-0.15457833 4.1757593 -0.51306999 13 4
-0.15455252 4.1750622 0.66171783 9 12
-0.15412167 4.1831722 -0.36622843 15 5
-0.1515802 4.1337991 0.80406916 13 13
-0.15434577 4.2293768 -0.22179982 10 6
-0.15305893 4.2142954 0.97358811 10 14
-0.1487871 4.0966754 -0.071554869 7 7
-0.15135226 4.1874523 1.1227571 14 15
-0.12189202 3.5080576 -0.94054842 5 0
-0.14742137 4.2427936 0.074102923 15 8
-0.13809545 3.9944799 -0.92274922 7 1
-0.14679046 4.2676158 0.22378856 12 9
-0.14463349 4.2263761 -0.82200515 5 2
-0.14589781 4.2851396 0.37511832 12 10
-0.14673574 4.3097506 -0.68299294 10 3
-0.14428028 4.2595506 0.52330703 12 11
-0.1457431 4.3250465 -0.53135037 12 4
-0.14487638 4.3216724 0.68487018 9 12
-0.14522849 4.3549347 -0.38121921 15 5
-0.14271218 4.2794785 0.83230883 13 13
-0.14488778 4.3676004 -0.22902218 9 6
-0.14422558 4.3705945 1.0095804 9 14
-0.13881478 4.2290778 -0.073858589 7 7
-0.14215469 4.3540058 1.167274 14 15
-0.11019825 3.5065117 -0.94003081 6 0
-0.138106 4.4191694 0.077174544 15 8
-0.12457393 4.0085721 -0.92589855 5 1
-0.13797393 4.4397612 0.23279037 11 9
-0.13850372 4.4819336 -0.87161553 2 2
-0.13676473 4.4508896 0.38958618 11 10
-0.1368175 4.478065 -0.7095868 10 3
-0.13459751 4.4306674 0.54426849 12 11
-0.13532038 4.4802952 -0.55036199 12 4
-0.13591044 4.4998317 0.71302837 9 12
-0.13604966 4.5306439 -0.39655861 16 5
-0.13316174 4.4604902 0.86741769 13 13
-0.13467839 4.5377717 -0.23791927 11 6
-0.13356507 4.5269027 1.0455725 9 14
-0.12986256 4.4014139 -0.076860398 7 7
-0.13303812 4.5359697 1.215932 14 15
-0.097686924 3.4972196 -0.93744266 5 0
-0.12858847 4.6035037 0.080385789 17 8
-0.11079257 3.991431 -0.92184937 5 1
-0.12682691 4.597939 0.24105945 10 9
-0.12753655 4.6531286 -0.90481627 17 2
-0.12529421 4.6007142 0.40265954 9 10
-0.12723584 4.6720095 -0.74024802 10 3
-0.12430598 4.5938072 0.56425512 11 11
-0.12531814 4.6612978 -0.57254225 13 4
-0.12452599 4.6622019 0.73868364 8 12
-0.12467434 4.6983929 -0.41120079 14 5
-0.12316365 4.6414623 0.90252656 12 13
-0.1248939 4.7378497 -0.24838647 11 6
-0.12339745 4.7123871 1.0883132 8 14
-0.11886671 4.5697579 -0.079792403 7 7
-0.1217974 4.714077 1.2635547 14 15
-0.085477822 3.4975393 -0.93744266 5 0
-0.11598472 4.7798648 0.083457403 15 8
-0.096444972 4.0034995 -0.9245488 5 1
-0.11630666 4.8279724 0.25309673 11 9
-0.11162064 4.667284 -0.90748757 6 2
-0.11391871 4.7983146 0.41991636 7 10
-0.11518504 4.8877006 -0.7743507 10 3
-0.11229472 4.8006253 0.58960396 11 11
-0.11265717 4.8522434 -0.59594113 13 4
-0.11320622 4.8758912 0.77247345 8 12
-0.1127698 4.894002 -0.4282833 13 5
-0.1111768 4.8617101 0.94526786 11 13
-0.11409948 5.0278044 -0.2635639 30 6
-0.11112728 4.9349079 1.1396021 8 14
-0.10732519 4.7660656 -0.083213076 7 7
-0.11000089 4.9230609 1.3194594 12 15
-0.073269352 3.4978161 -0.93744266 5 0
-0.10549264 5.036128 0.087925225 29 8
-0.083088227 3.9999008 -0.92364907 5 1
-0.095529534 4.6774597 -0.90939575 3 2
-0.10160435 5.0178003 0.43909061 7 10
-0.10005693 4.94138 -0.78279817 5 3
-0.10099477 5.0311956 0.6178776 11 11
-0.10138296 5.0947237 -0.62567729 13 4
-0.10113171 5.1270809 0.81220788 6 12
-0.10004624 5.1174703 -0.44780618 13 5
-0.099197239 5.0740433 0.9864825 11 13
-0.099925674 5.2041259 1.2016885 7 14
-0.096050195 5.0483174 -0.088134654 19 7
-0.097186118 5.1551962 1.3815762 12 15
-0.061670467 3.49804 -0.93744266 5 0
-0.068991616 3.9923723 -0.92184937 5 1
-0.080388293 4.6993432 -0.91359347 2 2
-0.089583628 5.2910285 0.4629713 9 10
-0.087439828 5.2182131 -0.82659984 1 3
-0.087450907 5.2736654 0.6476137 12 11
-0.087700389 5.3451343 -0.65638834 13 4
-0.087240621 5.3742924 0.85131645 7 12
-0.087345213 5.3807354 -0.47081533 12 5
-0.085397325 5.3177705 1.0338032 10 13
-0.085277982 5.4285202 1.2534273 6 14
-0.082927585 5.3988886 1.4467984 12 15
-0.049622584 3.5098236 -0.94054842 5 0
-0.080242962 5.7465644 0.10031643 93 8
-0.055054151 3.992589 -0.92184937 5 1
-0.077788368 5.7136283 0.29946637 100 9
-0.063555159 4.6681862 -0.90748757 2 2
-0.074863598 5.5702181 0.48737493 9 10
-0.073077105 5.5088415 -0.8725915 11 3
-0.072314471 5.5240393 0.67832482 12 11
-0.073016867 5.6530714 -0.69416779 16 4
-0.072558612 5.6945486 0.90200126 10 12
-0.073056594 5.7336316 -0.50166845 21 5
-0.071174957 5.6635418 1.100968 17 13
-0.071671695 5.7836185 -0.30312988 33 6
-0.07011503 5.7386117 1.3249618 16 14
-0.068970062 5.7267127 -0.099967383 40 7
-0.067794122 5.7120833 1.530656 33 15
-0.037371449 3.5099754 -0.94054842 5 0
-0.041116014 3.9927571 -0.92184937 5 1
-0.058067221 5.7358341 0.30061778 100 9
-0.047300499 4.6723061 -0.90825087 2 2
-0.057719905 5.8015513 0.50759506 21 10
-0.054946218 5.621654 -0.89042509 6 3
-0.05543375 5.7743678 0.70903593 20 11
-0.055155661 5.8517923 -0.71854174 41 4
-0.053830124 5.819211 0.92171198 32 12
-0.054035719 5.8414364 -0.51108128 43 5
-0.05175332 5.8137913 -0.30469999 42 6
-0.050557736 5.7933836 1.337559 21 14
-0.048963785 5.7249188 -0.099932484 70 7
-0.048357718 5.7721701 1.5467027 44 15
-0.025076713 3.5042892 -0.93899554 6 0
-0.040834416 5.8489671 0.10209658 54 8
-0.027232345 4.0006709 -0.92364907 5 1
-0.03863962 5.8258762 0.30532798 33 9
-0.031015614 4.6763692 -0.90901417 2 2
-0.037582614 5.8196483 0.50916386 24 10
-0.035708595 5.6830468 -0.90012401 5 3
-0.035639361 5.8340778 0.71634805 38 11
-0.034727201 5.8519492 -0.71854174 45 4
-0.033666089 5.8450432 0.92577928 28 12
-0.033795379 5.8674898 -0.51334733 62 5
-0.032346971 5.7915096 1.1257731 36 13
-0.031479146 5.8179302 -0.30490932 31 6
-0.030448211 5.8149614 1.342508 23 14
-0.029322404 5.7930436 -0.10111924 20 7
-0.028181683 5.7665086 1.5451498 44 15
-0.012836295 3.5024235 -0.93847787 5 0
-0.020411707 5.8470736 0.10206167 46 8
-0.013242219 3.9929466 -0.92184937 5 1
-0.018351924 5.8419538 0.30616537 34 9
-0.014690605 4.6764488 -0.90901417 2 2
-0.017310629 5.8336911 0.51038402 27 10
-0.015872037 5.6831369 -0.90012401 3 3
-0.01526766 5.8321815 0.71610433 35 11
-0.014339914 5.8679152 -0.72049159 39 4
-0.01326132 5.8451252 0.92577928 29 12
-0.013280607 5.8536258 -0.51212716 50 5
-0.01212909 5.7915874 1.1257731 37 13
-0.011194823 5.8299885 -0.30553734 27 6
-0.01016888 5.8267245 1.3452073 23 14
-0.0091274548 5.8111081 -0.10143339 20 7
-0.0080565512 5.7685032 1.5456674 42 15
-0.00061121368 3.5024471 -0.93847787 5 0
6.9988396e-08 5.8691063 0.10244562 42 8
0.00069500605 3.9929686 -0.92184937 5 1
0.0020405776 5.8459768 0.3063747 31 9
0.0016364657 4.688251 -0.91130376 2 2
0.0030523257 5.8297315 0.5100354 24 10
0.003978454 5.6989608 -0.90262699 3 3
0.0050841211 5.8262444 0.7153731 32 11
0.0061487411 5.8719001 -0.72097909 39 4
0.0071601295 5.8609385 0.92828226 30 12
0.007165812 5.8655901 -0.51317304 48 5
0.0080971438 5.799448 1.1272997 34 13
0.0091666672 5.8359842 -0.30585137 25 6
0.010189425 5.8384166 1.3479067 21 14
0.011201997 5.8351007 -0.10185225 17 7
0.012133464 5.7936101 1.5523967 43 15
0.011613875 3.5024278 -0.93847787 5 0
0.020457922 5.8610721 0.10230601 36 8
0.014662696 4.0007367 -0.92364907 5 1
0.022440722 5.8439369 0.30627003 27 9
0.0179726 4.6803637 -0.90977734 2 2
0.023496607 5.8535933 0.51212716 22 10
0.023919957 5.7107639 -0.90450418 3 3
0.025492325 5.8420711 0.71732301 33 11
0.026653232 5.8738279 -0.72122282 36 4
0.027691811 5.8766809 0.93078518 28 12
0.027770702 5.8934231 -0.51561338 46 5
0.028438436 5.8190169 1.1311158 31 13
0.029600207 5.8478999 -0.30647939 24 6
0.030547606 5.8344483 1.3470069 20 14
0.031593423 5.839025 -0.10192205 18 7
0.032509468 5.8205786 1.5596437 50 15
0.023865119 3.5062294 -0.93951315 5 0
0.041085839 5.8849602 0.10272487 34 8
0.028656738 4.0045586 -0.9245488 5 1
0.042982113 5.8637948 0.30731675 26 9
0.034364354 4.6881256 -0.91130376 2 2
0.044050496 5.8694143 0.51352161 22 10
0.043825284 5.7066956 -0.90387845 3 3
0.046067867 5.8657675 0.72024786 30 11
0.047349364 5.8975191 -0.72414774 33 4
0.048271466 5.8844495 0.93203664 25 12
0.048360329 5.8952823 -0.51578766 40 5
0.048976671 5.8463669 1.1364584 29 13
0.050285064 5.8797159 -0.30815417 24 6
0.051187094 5.8654847 1.3542054 16 14
0.052042414 5.8468776 -0.10206167 16 7
0.052983444 5.8378153 1.5643023 43 15
0.036005471 3.4964664 -0.93692499 6 0
0.061922677 5.9127755 0.10321353 33 8
0.042551253 3.9966397 -0.92274922 5 1
0.063840888 5.8995585 0.30920088 24 9
0.050602544 4.6761985 -0.90901417 2 2
0.06471514 5.8851633 0.51491612 21 10
0.063655637 5.6986065 -0.90262699 3 3
0.066859767 5.8933597 0.72366023 28 11
0.068302698 5.9290776 -0.72804755 32 4
0.06899529 5.9000473 0.93453962 19 12
0.069076955 5.9070311 -0.51683354 35 5
0.069595255 5.8638282 1.1398931 26 13
0.071147099 5.907464 -0.30961955 21 6
0.072231278 5.9120369 1.365003 15 14
0.072700858 5.8666563 -0.10241073 15 7
0.073459566 5.8453221 1.566373 37 15
0.048264399 3.5001824 -0.93796021 6 0
0.082697272 5.9225206 0.10338806 29 8
0.056723323 4.0120549 -0.92634839 5 1
0.084778368 5.923264 0.31045693 20 9
0.067263618 4.6995497 -0.91359347 2 2
0.085686654 5.914784 0.5175308 20 10
0.082477115 5.6252685 -0.89105082 2 3
0.087727077 5.9129391 0.72609758 21 11
0.089411661 5.9565911 -0.73145986 23 4
0.09019132 5.9392734 0.94079703 13 12
0.09015128 5.9366369 -0.51944822 23 5
0.090276033 5.8772907 1.1425643 16 13
0.092197806 5.9351377 -0.31108496 12 6
0.093267202 5.937079 1.3708518 11 14
0.093625054 5.8943591 -0.10289939 13 7
0.094479427 5.8836617 1.5767257 28 15
0.060548045 3.5038559 -0.93899554 6 0
0.10403489 5.9601846 0.10405125 17 8
0.070450112 3.9962454 -0.92274922 5 1
0.10512023 5.9628892 0.31255037 14 9
0.083526924 4.6914349 -0.91206706 2 2
0.10712209 5.9582744 0.52136564 11 10
0.10096661 5.5617447 -0.88103902 2 3
0.10865632 5.9284754 0.72804755 10 11
0.11123332 6.0118155 -0.73828453 12 4
0.11087164 5.9922676 0.94924444 5 12
0.1118052 5.9860864 -0.52380598 10 5
0.11178892 5.9299383 1.152868 7 13
0.20694993 10.877102 -0.57014793 47 6
0.17265353 8.9917784 2.0762982 2 14
0.11397875 5.9360018 -0.10363239 8 7
0.11500189 5.9354663 1.5907019 6 15
0.072819464 3.5055544 -0.93951315 5 0
0.083702862 3.9959898 -0.92274922 5 1
0.099903829 4.6911144 -0.91206706 2 2
0.11872726 5.5297804 -0.87603313 1 3
0.25439858 11.38553 -0.59683931 32 6
0.24706842 10.887539 -0.19009161 16 7
0.084489733 3.5072253 -0.94003081 6 0
0.27741161 11.432893 0.19962063 37 8
0.097985312 4.0093102 -0.92589855 5 1
0.28091735 11.412876 0.59830469 44 9
0.1152654 4.6829066 -0.91054058 2 2
0.2828064 11.408902 0.99845618 39 10
0.13832633 5.5411816 -0.87791038 2 3
0.28639215 11.392816 1.3993039 35 11
0.17445485 6.8920183 -0.84650451 1 4
0.29143614 11.434594 -1.0007222 1 5
0.27911833 10.876776 2.1149271 18 13
0.29568511 11.44447 -0.59997946 30 6
0.23506659 9.0371494 2.087096 33 14
0.29847491 11.398356 -0.19902724 15 7
0.096944034 3.5146332 -0.94210136 6 0
0.31770959 11.445848 0.19986497 35 8
0.11192647 4.0069962 -0.92544866 5 1
0.32125664 11.429795 0.59924674 29 9
0.13205136 4.6981754 -0.91359347 2 2
0.3228012 11.41382 0.99897915 34 10
0.15778166 5.5446134 -0.87853605 2 3
0.32695174 11.419527 1.4027163 32 11
0.19816706 6.8794622 -0.84504211 1 4
0.33138344 11.434607 1.8118242 59 12
0.33250591 11.473339 -1.0042084 1 5
0.31742468 10.887509 2.1172168 18 13
0.33615655 11.461336 -0.60092151 27 6
0.26546365 8.9973154 2.0780978 25 14
0.33885163 11.417234 -0.1993763 15 7
0.22695671 7.6023135 2.0379412 37 15
0.10867269 3.4968953 -0.93744266 5 0
0.35822633 11.462657 0.2001791 31 8
0.12572832 4.0007372 -0.92409897 5 1
0.36010164 11.458611 0.60081685 25 9
0.14845151 4.6976857 -0.91359347 2 2
0.36359307 11.442494 1.0015938 29 10
0.17688154 5.5361314 -0.87728459 2 3
0.36719683 11.430221 1.4041786 29 11
0.22282231 6.8985686 -0.84747952 1 4
0.37012684 11.459111 1.8158915 54 12
0.37449098 11.531848 -1.0094378 1 5
0.35491765 10.870637 2.1141639 18 13
0.37727895 11.494028 -0.60270095 21 6
0.2971237 9.0041246 2.0798974 23 14
0.37763712 11.444027 -0.19986497 15 7
0.25203964 7.5976572 2.036906 36 15
0.1214117 3.5119402 -0.94158375 5 0
0.39830637 11.521362 0.20122625 19 8
0.13858774 3.9886131 -0.92139953 5 1
0.40190729 11.509181 0.60353833 18 9
0.16457218 4.689291 -0.91206706 2 2
0.40563712 11.500891 1.0068232 17 10
0.19621272 5.5631523 -0.88166475 2 3
0.40671378 11.474568 1.4097847 17 11
0.24541681 6.8898563 -0.84650451 1 4
0.41273645 11.530791 1.8274676 31 12
0.32536063 9.045577 -0.79189706 1 5
0.39110297 10.873324 2.1149271 18 13
0.41727135 11.544608 -0.60542244 5 6
0.32697904 9.0030899 2.0798974 27 14
0.41940272 11.492599 -0.20073758 9 7
0.27898562 7.608314 2.0400119 37 15
0.13291004 3.5076573 -0.94054842 5 0
0.64968497 17.067038 0.29812202 10 8
0.15288317 3.9978418 -0.92364907 5 1
0.65406841 17.026058 0.89295614 18 9
0.18012059 4.6887197 -0.91206706 2 2
0.65690577 17.022259 1.4903631 18 10
0.21517292 5.5505905 -0.8797875 2 3
0.66172463 16.993408 2.0881095 12 11
0.26915359 6.8810234 -0.84552956 1 4
0.54519749 13.876192 2.1994689 14 12
0.35582688 9.0563927 -0.79294294 1 5
0.4292081 10.875816 2.1156902 18 13
0.68065101 17.170933 -0.90059721 1 6
0.358096 8.9941053 2.0780978 24 14
0.68140942 17.039783 -0.29766825 5 7
0.33701691 8.3909941 2.2501729 8 15
0.14531395 3.5110326 -0.94158375 5 0
0.71083027 17.102629 0.29878521 20 8
0.1672428 4.007019 -0.92589855 5 1
0.71592647 17.081543 0.89599168 18 9
0.19566528 4.668447 -0.90825087 2 2
0.71874666 17.077593 1.4954182 15 10
0.23421195 5.5419106 -0.87853605 2 3
0.72331572 17.044544 2.0946906 14 11
0.29283172 6.8721089 -0.8445546 1 4
0.59219271 13.840655 2.1941502 14 12
0.38692454 9.0431519 -0.79189706 1 5
0.46776193 10.887981 2.1183615 20 13
0.56326848 13.05792 -0.68497306 1 6
0.47018418 10.855998 2.5086541 37 14
0.74244535 17.073261 -0.29829654 8 7
0.45832133 10.497341 2.8154337 7 15
0.15739654 3.5066438 -0.94054842 5 0
1.0230116 22.703503 0.3966932 7 8
0.18193443 4.0219846 -0.92949772 5 1
1.0281504 22.641563 1.187817 15 9
0.21320808 4.6951923 -0.91359347 2 2
1.0314801 22.627977 1.9817473 17 10
0.25482106 5.5686855 -0.88291621 2 3
0.8693462 18.925766 2.3262422 6 11
0.31754807 6.8869085 -0.84650451 1 4
0.64105368 13.850343 2.1960273 14 12
0.41904375 9.053688 -0.79294294 1 5
0.6112619 13.107747 -0.68769449 1 6
0.51053888 10.906849 2.5208015 83 14
1.0644469 22.655556 -0.39589041 5 7
0.16972867 3.5080028 -0.94106609 6 0
1.1038132 22.73175 0.39725167 5 8
0.19502327 4.0018606 -0.9249987 5 1
1.3847471 28.313255 1.4856086 10 9
0.22921148 4.6865764 -0.91206706 2 2
1.388449 28.287764 2.4778378 7 10
0.27211863 5.5243568 -0.87603313 2 3
0.93520415 18.918652 2.3257549 8 11
0.3419812 6.8936892 -0.84747952 1 4
0.45143509 9.0680895 -0.79433739 1 5
0.54454666 10.900138 2.1214147 78 13
0.55066687 10.945872 2.5302494 93 14
1.1504749 22.789503 -0.3982988 1 7
0.5498724 10.85468 2.9122322 19 15
0.18227407 3.5131767 -0.94261903 5 0
1.3810872 26.530033 0.46371046 30 8
0.20919365 4.0050483 -0.92589855 5 1
1.9434004 37.08215 1.9460604 1 9
0.24598151 4.6935897 -0.91359347 2 2
1.6792603 31.935726 2.7978735 6 10
0.29223198 5.5391545 -0.87853605 1 3
0.36499169 6.8726306 -0.84504211 1 4
0.88119209 16.538099 2.6230936 95 12
0.4809638 9.0266676 -0.79085118 1 5
0.58238518 10.894249 2.1206512 79 13
1.3739704 25.617973 -1.3445108 14 6
0.58802664 10.928316 2.5266502 91 14
0.58807522 10.85848 2.913785 17 15
0.19453382 3.5125191 -0.94261903 5 0
0.22382432 4.0159678 -0.92859799 5 1
0.26236045 4.6927023 -0.91359347 2 2
1.3961285 24.893644 2.181334 10 10
0.31156692 5.5381002 -0.87853605 1 3
1.2464291 22.086725 2.716224 87 11
0.38920233 6.875278 -0.84552956 1 4
0.93880779 16.532951 2.6227806 93 12
0.51247221 9.0249329 -0.79085118 1 5
0.62040222 10.89215 2.1206512 79 13
1.5719516 27.513311 -1.4442631 3 6
0.62494642 10.904797 2.5217013 90 14
0.62619495 10.860218 2.9148202 18 15
0.20668098 3.5098901 -0.94210136 4 0
1.7815632 30.164835 0.52744663 4 8
0.23818614 4.020998 -0.92994767 5 1
2.2177346 37.328861 1.9597725 22 9
0.27920645 4.6995969 -0.91511995 2 2
1.4846808 24.916462 2.1837742 11 10
0.33278087 5.5685291 -0.88354194 1 3
1.3239996 22.090168 2.7171991 87 11
0.41391566 6.885766 -0.84699202 1 4
0.99579626 16.517744 2.6209035 93 12
0.54564863 9.0509319 -0.79329151 1 5
0.65889597 10.897757 2.1221778 78 13
1.6740332 27.607338 -1.4494967 3 6
0.66347826 10.910329 2.5235009 90 14
1.5967256 26.18136 -0.45784643 5 7
0.66410327 10.857966 2.9148202 18 15
0.21833101 3.4995065 -0.93951315 5 0
1.8810825 30.066626 0.525841 43 8
0.25161153 4.0104175 -0.92769814 5 1
2.3495378 37.34481 1.9610285 5 9
0.29462448 4.6829195 -0.91206706 2 2
1.5707512 24.897211 2.182554 13 10
0.35221815 5.5673337 -0.88354194 1 3
1.4011065 22.085411 2.7171991 84 11
0.43895245 6.9001288 -0.84894192 1 4
1.0542067 16.525993 2.6227806 92 12
0.57546568 9.0211353 -0.79085118 1 5
0.69693512 10.895391 2.1221778 78 13
0.70181143 10.911835 2.5244007 90 14
0.70124513 10.844016 2.9117146 16 15
0.23117959 3.5083616 -0.94210136 6 0
1.985504 30.051895 0.5257014 48 8
0.26561004 4.0095143 -0.92769814 5 1
0.31148857 4.6896977 -0.91359347 2 2
1.6575233 24.889587 2.1823797 10 10
0.36875576 5.5227079 -0.8766588 2 3
1.4784509 22.084347 2.7176867 87 11
0.46223992 6.8866711 -0.84747952 1 4
1.1116259 16.518272 2.622155 92 12
0.60825562 9.0149899 -0.79050261 1 5
0.73443192 10.885056 2.1206512 79 13
0.88213319 13.04026 -0.68497306 1 6
0.74016321 10.913208 2.5253005 90 14
0.73935926 10.845357 2.9127498 19 15
0.24417016 3.509418 -0.94261903 5 0
2.0903864 30.044781 0.5257014 48 8
0.27878791 3.9968989 -0.9249987 5 1
0.32867405 4.6885242 -0.91359347 2 2
1.7494298 24.893282 2.1832514 13 10
0.38982677 5.5331426 -0.87853605 2 3
1.5549786 22.071133 2.7167118 87 11
0.48711702 6.8968959 -0.84894192 1 4
1.1698252 16.522171 2.6234062 92 12
0.64028674 9.0207615 -0.7911998 1 5
0.77404678 10.878374 2.1198881 79 13
0.92963505 13.032956 -0.68476373 1 6
0.78057176 10.916253 2.5266502 91 14
0.77818179 10.856197 2.9163733 20 15
0.25670138 3.5123978 -0.9436543 5 0
2.2007916 30.040907 0.5257712 43 8
0.29429278 4.0075111 -0.92769814 5 1
0.34503931 4.6873488 -0.91359347 2 2
1.8370526 24.896959 2.1841228 11 10
0.41088602 5.5553885 -0.88229048 2 3
1.6358582 22.065285 2.7167118 87 11
0.51091945 6.875268 -0.84650451 1 4
1.2274957 16.517988 2.6234062 92 12
0.67236131 9.0264196 -0.79189706 1 5
0.81259716 10.883438 2.1214147 78 13
0.81779999 10.901801 2.5239508 91 14
0.81635964 10.857268 2.9174082 18 15
0.26778099 3.4960704 -0.93951315 5 0
2.3016288 30.049393 0.52605045 48 8
0.30668473 3.9948552 -0.9249987 5 1
0.36079651 4.6782861 -0.91206706 2 2
1.9233288 24.88245 2.1834257 11 10
0.42717367 5.526423 -0.87791038 2 3
1.7093223 22.063698 2.7171991 87 11
0.5352546 6.8933272 -0.84894192 1 4
1.2845303 16.505726 2.622155 92 12
0.70448744 9.0319624 -0.79259431 1 5
0.84899187 10.884598 2.1221778 79 13
1.0173986 13.014379 -0.68413568 1 6
0.85393977 10.89903 2.5239508 91 14
0.85395336 10.8505 2.9163733 17 15
0.28014183 3.5047917 -0.94210136 6 0
2.4058616 30.033203 0.52591079 48 8
0.32062855 3.9937601 -0.9249987 5 1
3.0002923 37.290157 1.9606098 5 9
0.37788185 4.6966333 -0.91588324 2 2
2.0047174 24.862034 2.1822054 7 10
0.44646338 5.5248981 -0.87791038 2 3
1.7869754 22.06551 2.718174 87 11
0.55706388 6.8637166 -0.84552956 1 4
1.3421426 16.501141 2.622155 92 12
0.73410976 9.0256042 -0.79224569 1 5
0.88729769 10.885482 2.122941 78 13
1.0637939 13.022691 -0.68476373 1 6
0.89261824 10.903752 2.5257504 91 14
0.89118803 10.839752 2.9143026 17 15
0.29205215 3.4999425 -0.94106609 6 0
2.5106761 30.024622 0.52591079 43 8
0.3345685 3.9926164 -0.9249987 5 1
3.1311016 37.287415 1.9610285 19 9
0.39493001 4.7031112 -0.91740966 2 2
2.0918305 24.858852 2.182554 8 10
0.46441969 5.5075583 -0.87540734 1 3
1.863983 22.059137 2.718174 84 11
0.58403599 6.8973346 -0.84991688 1 4
1.4004065 16.504227 2.6234062 92 12
0.76628673 9.0309286 -0.79294294 1 5
0.92428946 10.870581 2.1206512 79 13
0.93167162 10.91222 2.52845 91 14
0.92935336 10.840425 2.915338 16 15
0.30527255 3.5104492 -0.94417191 6 0
2.6165018 30.02763 0.52612025 43 8
0.34884149 3.9953074 -0.92589855 5 1
3.2559602 37.290756 1.9617611 11 9
0.41237241 4.7134385 -0.91969937 2 2
2.1803141 24.871248 2.1842971 8 10
0.48260358 5.4940968 -0.87353015 2 3
1.940282 22.044588 2.7171991 87 11
0.60671198 6.8794341 -0.84796697 1 4
1.4554726 16.503428 2.624032 92 12
0.79675174 9.0162907 -0.79189706 1 5
0.96257848 10.8712 2.1214147 79 13
0.96940917 10.905019 2.52755 91 14
0.96529418 10.837283 2.915338 16 15
0.31682736 3.5016661 -0.94210136 6 0
2.7157106 30.014805 0.52605045 39 8
0.36243954 3.9980099 -0.9267984 5 1
3.3783507 37.193634 1.9572604 7 9
0.42739841 4.6963291 -0.91664648 2 2
2.2689335 24.883327 2.1860402 8 10
0.50297147 5.5160728 -0.87728459 2 3
2.0141022 22.045938 2.718174 84 11
0.62915844 6.8734317 -0.84747952 1 4
1.513068 16.498247 2.624032 92 12
0.83150351 9.0491667 -0.79503471 1 5
0.99898559 10.871858 2.1221778 78 13
1.0041322 10.88622 2.5239508 91 14
1.0038328 10.841541 2.9174082 16 15
0.32915872 3.5082901 -0.94417191 6 0
2.8208475 30.009123 0.52612025 43 8
0.37639406 3.9967203 -0.9267984 5 1
0.44333756 4.6987953 -0.91740966 2 2
2.3516316 24.877649 2.1862147 11 10
0.52371448 5.5300159 -0.8797875 2 3
2.0910296 22.038774 2.718174 87 11
0.65239775 6.8632879 -0.84650451 1 4
1.5702782 16.488932 2.6234062 92 12
0.86414963 9.0741272 -0.79747504 1 5
1.0372949 10.872213 2.122941 78 13
1.0426863 10.888469 2.5253005 90 14
1.0416684 10.837972 2.9174082 16 15
0.34028083 3.4955831 -0.94106609 6 0
2.9259779 30.003073 0.52619004 34 8
0.39110005 4.0031404 -0.92859799 5 1
0.45935547 4.6933112 -0.91664648 2 2
2.4365187 24.849461 2.1844714 11 10
0.54339969 5.5320864 -0.88041329 2 3
2.1691189 22.043196 2.7196367 80 11
0.67907941 6.8886261 -0.84991688 1 4
1.6278223 16.483351 2.6234062 92 12
0.88955128 9.0076084 -0.79189706 1 5
1.0752425 10.868526 2.122941 78 13
1.3012518 13.129569 -0.69146276 1 6
1.081648 10.894459 2.52755 91 14
1.0794965 10.83427 2.9174082 17 15
0.35170433 3.4866858 -0.93899554 6 0
2.6096931 25.826532 0.4530994 28 8
0.40467978 3.9978731 -0.92769814 5 1
0.47454825 4.6799593 -0.91435677 2 2
2.5252411 24.860628 2.1862147 8 10
0.56310838 5.5340858 -0.88103902 2 3
2.2456539 22.031536 2.7191489 84 11
0.70271313 6.8822646 -0.84942937 1 4
1.6861584 16.48543 2.6246576 92 12
0.92180163 9.0123768 -0.79259431 1 5
1.1127769 10.860801 2.1221778 78 13
1.3368697 13.025606 -0.68622911 1 6
1.1200719 10.894494 2.52845 91 14
1.1173012 10.830437 2.9174082 18 15
0.36507747 3.4969649 -0.94210136 6 0
2.6996274 25.815275 0.45306447 14 8
0.4174116 3.9848075 -0.9249987 5 1
4.1463785 39.516537 2.0823433 0 9
0.49374875 4.7056098 -0.91969937 2 2
2.6136782 24.867512 2.187609 8 10
0.58117777 5.5202999 -0.87916183 2 3
2.3221235 22.019617 2.7186615 87 11
0.72590011 6.8718734 -0.84845448 1 4
1.7441133 16.483372 2.6252837 92 12
0.95241886 9.0011787 -0.79189706 1 5
1.1502653 10.852945 2.1214147 79 13
1.3798027 12.997026 -0.68497306 1 6
1.1585089 10.894392 2.5293496 91 14
1.1555126 10.830314 2.9184437 17 15
0.37728286 3.4956691 -0.94210136 6 0
3.2438526 30.006575 0.52681834 14 8
0.43152949 3.9852633 -0.92544866 5 1
4.0372887 37.224319 1.9622846 11 9
0.51099128 4.7037687 -0.91969937 2 2
2.6983092 24.83843 2.1858661 8 10
0.59959042 5.5103827 -0.87791038 1 3
2.3998387 22.019272 2.7196367 80 11
0.74858898 6.8574572 -0.84699202 1 4
1.8016291 16.477184 2.6252837 92 12
0.99060714 9.0451603 -0.79608059 1 5
1.1908895 10.856463 2.122941 78 13
1.4300445 13.015706 -0.68622911 1 6
1.1956714 10.882534 2.52755 91 14
1.1941599 10.833894 2.9205141 16 15
0.39009181 3.4942629 -0.94210136 6 0
3.3524849 29.982561 0.52660894 29 8
0.44634932 3.9855919 -0.92589855 5 1
4.1745772 37.217213 1.9627032 11 9
0.52516073 4.6745505 -0.91435677 2 2
2.7891123 24.826391 2.1856916 5 10
0.62110955 5.5199251 -0.8797875 2 3
2.4814115 22.018219 2.7206116 80 11
0.77550083 6.8704481 -0.84894192 1 4
1.8615692 16.466543 2.6246576 92 12
1.0197158 9.0058336 -0.79294294 1 5
1.2311176 10.855926 2.1237042 78 13
1.2359927 10.881952 2.52845 91 14
1.2338576 10.829444 2.9205141 18 15
0.40201008 3.4851336 -0.94003081 6 0
3.4641833 29.985964 0.52688813 14 8
0.46319699 4.0032873 -0.93039757 5 1
0.54011786 4.6609879 -0.91206706 2 2
2.881 24.823919 2.186389 5 10
0.63996994 5.5058389 -0.87791038 2 3
2.5616317 22.005032 2.720124 77 11
0.79947698 6.8676996 -0.84894192 1 4
1.9190333 16.459946 2.6246576 92 12
1.0566939 9.0497141 -0.79712647 1 5
1.268774 10.849613 2.1233225 75 13
1.5263988 13.032911 -0.68769449 1 6
1.2744213 10.881442 2.5293496 91 14
3.1176977 26.579702 -0.46713111 2 7
1.2702972 10.813559 2.9174082 19 15
0.41447687 3.4914546 -0.94210136 6 0
3.0838976 25.939344 0.45596159 25 8
0.47554743 3.993989 -0.92859799 5 1
4.3897924 36.868629 1.945851 3 9
0.55975676 4.6942611 -0.91893619 2 2
2.9642553 24.822144 2.1870861 5 10
0.65869248 5.5076089 -0.87853605 1 3
2.6345949 21.996414 2.720124 77 11
0.82366502 6.8768358 -0.85040432 1 4
1.9736104 16.453491 2.6246576 89 12
1.0824188 9.0105534 -0.79398882 1 5
1.3045142 10.843396 2.122941 78 13
1.571524 13.043642 -0.68853194 1 6
1.3123662 10.892633 2.5329487 91 14
3.1306 25.945835 -0.45617098 5 7
1.3066159 10.813124 2.9184437 17 15
0.42558381 3.4862258 -0.94106609 6 0
3.157032 25.823774 0.45411161 54 8
0.48689404 3.9769156 -0.9249987 5 1
4.5070295 36.759907 1.9409314 6 9
0.57675296 4.7040706 -0.92122585 2 2
3.0475183 24.820087 2.1877835 5 10
0.6759873 5.4975524 -0.87728459 2 3
2.7080042 21.991499 2.7206116 80 11
0.84571958 6.8581581 -0.84845448 1 4
2.0315204 16.450422 2.6252837 85 12
1.1132721 9.014823 -0.79468602 1 5
1.3409448 10.842908 2.1237042 78 13
1.6118212 13.014573 -0.68727589 1 6
1.3499038 10.884118 2.5320492 91 14
3.2226224 25.946657 -0.45638043 5 7
1.3443506 10.808497 2.9184437 18 15
0.4382329 3.4885521 -0.94210136 6 0
0.50223559 3.9867923 -0.92769814 5 1
2.6382599 20.913319 1.1047075 7 9
0.58923942 4.6708636 -0.91511995 2 2
3.1336334 24.805347 2.1874349 5 10
0.69814986 5.5186758 -0.88103902 2 3
2.7837603 21.974035 2.7196367 77 11
0.86865312 6.8472872 -0.84747952 1 4
2.0894253 16.447151 2.6259093 85 12
1.1462376 9.0227413 -0.7957319 1 5
1.3785405 10.836213 2.1233225 75 13
1.657238 13.008868 -0.68727589 1 6
1.3868996 10.871608 2.5302494 91 14
2.6713231 20.910852 -0.36796656 6 7
1.3830545 10.811402 2.9205141 17 15
0.45189166 3.498497 -0.94520718 6 0
0.51514691 3.9772849 -0.92589855 5 1
2.7120111 20.909924 1.1050215 61 9
0.60503423 4.6648846 -0.91435677 2 2
3.2202077 24.794256 2.1874349 5 10
0.71587962 5.5044522 -0.87916183 2 3
2.8635185 21.987803 2.7225614 80 11
0.89049757 6.8284655 -0.84552956 1 4
2.145797 16.431921 2.6246576 85 12
1.177724 9.0186853 -0.7957319 1 5
1.4173734 10.839122 2.1248491 75 13
1.6964172 12.955475 -0.68476373 1 6
1.4253498 10.870564 2.5311494 91 14
2.7487204 20.935106 -0.36855993 21 7
1.4217899 10.814171 2.9225848 17 15
0.46257687 3.4854078 -0.94210136 6 0
0.53159684 3.9947796 -0.93039757 5 1
2.784198 20.89439 1.1047075 33 9
0.62235254 4.6705284 -0.91588324 2 2
3.310432 24.810511 2.1898751 5 10
0.73665774 5.5136681 -0.88103902 2 3
2.9413118 21.985544 2.7235363 84 11
0.92012823 6.8686004 -0.85089183 1 4
2.2036641 16.428249 2.6252837 89 12
1.2107853 9.0263672 -0.79677778 1 5
1.4552033 10.834107 2.1248491 75 13
1.7490877 13.004898 -0.68769449 1 6
1.4643192 10.873249 2.5329487 91 14
2.8207169 20.917456 -0.3684203 16 7
1.4600495 10.81297 2.92362 17 15
0.47343379 3.4742012 -0.93951315 5 0
0.54290104 3.9735913 -0.92589855 5 1
0.63865089 4.6683278 -0.91588324 2 2
3.398093 24.8067 2.1905723 5 10
0.75375354 5.4954062 -0.87853605 2 3
3.0191236 21.983009 2.7245111 80 11
0.94355619 6.861414 -0.85040432 1 4
2.2620778 16.428282 2.6265349 89 12
1.2412012 9.0141916 -0.79608059 1 5
1.4924793 10.825073 2.1240859 74 13
2.7373178 19.82848 -1.049022 2 6
1.5033352 10.875793 2.5347486 91 14
2.7369037 19.774458 -0.34845477 13 7
1.4967219 10.800154 2.9215493 16 15
0.48743179 3.4859204 -0.94313669 6 0
0.55839056 3.9832516 -0.92859799 5 1
2.774246 19.764858 1.0459865 40 9
0.6549415 4.66607 -0.91588324 2 2
3.4857795 24.80258 2.1912696 5 10
0.77348095 5.496654 -0.87916183 2 3
3.0952713 21.968407 2.7240238 84 11
0.96473008 6.8384218 -0.84796697 1 4
2.3205192 16.42811 2.6277864 89 12
1.2726614 9.0098038 -0.79608059 1 5
1.5296994 10.81591 2.1233225 75 13
1.8420767 13.008191 -0.68853194 1 6
1.5423869 10.878197 2.5365481 91 14
2.8084288 19.782602 -0.34876889 12 7
1.5355027 10.802514 2.92362 16 15
0.49898979 3.4842846 -0.94313669 6 0
2.8374748 19.788559 0.34894341 11 8
0.56993401 3.9698043 -0.92589855 5 1
2.8403478 19.759506 1.0461959 12 9
0.67041248 4.6638722 -0.91588324 2 2
3.5515418 24.676504 2.1811595 2 10
0.79452062 5.5136113 -0.88229048 2 3
3.1698108 21.969809 2.725486 84 11
0.98967099 6.850903 -0.84991688 1 4
2.3755383 16.424236 2.628412 89 12
1.3048074 9.0213089 -0.79747504 1 5
1.5672489 10.822434 2.1256123 75 13
1.8811883 12.974338 -0.6870665 1 6
1.5767648 10.861452 2.5338488 91 14
2.8705685 19.749434 -0.34835005 3 7
1.5735401 10.812656 2.9277611 17 15
0.510589 3.4786985 -0.94210136 6 0
2.9068186 19.780512 0.34897831 11 8
0.58832747 3.9986384 -0.933097 5 1
2.9098914 19.753422 1.0464052 10 9
0.69012302 4.6848116 -0.92046267 2 2
3.9626656 26.867611 2.3760397 6 10
0.81145477 5.4951701 -0.8797875 2 3
3.2470677 21.96254 2.7259738 84 11
1.0124149 6.8395524 -0.84894192 1 4
2.4317009 16.408026 2.6271608 85 12
1.3374604 9.0245819 -0.79817224 1 5
1.6064605 10.826609 2.1275203 79 13
1.9387897 13.050668 -0.69146276 1 6
1.615245 10.859736 2.5347486 91 14
2.9418514 19.755117 -0.3486293 2 7
1.6112715 10.807097 2.9277611 17 15
0.5215776 3.469254 -0.94003081 6 0
2.9788299 19.79002 0.34932736 13 8
0.59966922 3.9792171 -0.92904782 5 1
2.979408 19.747095 1.0466145 12 9
0.70178229 4.6513138 -0.91435677 2 2
3.9001999 25.819342 2.2845263 9 10
0.83181453 5.5001168 -0.88103902 2 3
3.3266675 21.970697 2.728411 91 11
1.036285 6.8359766 -0.84894192 1 4
2.4925222 16.422873 2.6309152 92 12
1.3659668 9.0001602 -0.79642916 1 5
1.6442354 10.820936 2.1275203 79 13
1.9843367 13.04382 -0.69146276 1 6
1.6543193 10.861737 2.5365481 91 14
3.0143948 19.76845 -0.34904811 2 7
1.646656 10.786129 2.92362 16 15
0.53427303 3.471231 -0.94106609 6 0
2.8998783 18.818985 0.33236364 12 8
0.61296058 3.973248 -0.92814809 5 1
3.0483255 19.736574 1.0466145 10 9
0.72041273 4.6643572 -0.91740966 2 2
3.8466022 24.876207 2.2022512 11 10
0.85040295 5.4932761 -0.88041329 2 3
3.4030414 21.956991 2.7281675 100 11
1.0619688 6.8440866 -0.85040432 1 4
2.5516493 16.425785 2.6327922 92 12
1.3992081 9.0071507 -0.79747504 1 5
1.6807933 10.80737 2.125994 78 13
2.0298595 13.036814 -0.69146276 1 6
1.6940223 10.86745 2.5392475 91 14
3.0793781 19.732122 -0.34859437 1 7
1.6872817 10.799403 2.9287965 16 15
0.54758811 3.4769785 -0.94313669 6 0
2.9630561 18.792948 0.33208442 13 8
0.62561166 3.9633839 -0.92634839 5 1
3.1196902 19.741596 1.047452 8 9
0.73914057 4.6773281 -0.92046267 2 2
3.5635307 22.524746 1.9951692 18 10
0.86895621 5.486371 -0.8797875 2 3
1.0858481 6.8403387 -0.85040432 1 4
2.6089749 16.416777 2.6327922 92 12
1.4293919 8.9943399 -0.79677778 1 5
1.7197447 10.809193 2.1275203 78 13
2.0753515 13.02965 -0.69146276 1 6
1.7319492 10.861469 2.5392475 91 14
2.9345138 18.382408 -0.32492888 2 7
1.7261854 10.801079 2.930867 16 15
0.56033701 3.4788601 -0.94417191 6 0
2.9496953 18.292889 0.323428 2 8
0.64006293 3.965024 -0.92724824 5 1
3.1854014 19.710869 1.0464052 8 9
0.7529586 4.6592145 -0.91740966 2 2
3.6319585 22.449234 1.9895912 36 10
0.89062744 5.4989047 -0.88229048 2 3
3.3735576 20.805983 2.5880175 11 11
1.1103566 6.840425 -0.85089183 1 4
2.6681623 16.419271 2.6346695 92 12
1.4652516 9.0168285 -0.79921812 1 5
1.7593546 10.814751 2.1298101 79 13
2.1208181 13.022326 -0.69146276 1 6
1.7685958 10.847666 2.5374479 91 14
2.9957597 18.354292 -0.32461476 9 7
1.7638755 10.794988 2.930867 14 15
0.57090873 3.4673519 -0.94158375 5 0
3.0109258 18.266697 0.32314876 2 8
0.65516782 3.9704568 -0.92904782 5 1
3.2574458 19.719334 1.047452 8 9
0.76793897 4.6488094 -0.91588324 2 2
3.6904652 22.316511 1.9789582 17 10
0.90981829 5.4957623 -0.88229048 2 3
3.3338718 20.116482 2.503684 10 11
1.1355256 6.8443413 -0.85186678 1 4
2.7248168 16.405958 2.6340439 92 12
1.4993311 9.0273829 -0.80061269 1 5
1.798385 10.816289 2.1313365 81 13
2.1662586 13.014845 -0.69146276 1 6
1.8077345 10.849114 2.5392475 91 14
3.0584989 18.335835 -0.32447514 10 7
1.8018621 10.790669 2.9313846 14 15
0.58172578 3.4577174 -0.93951315 5 0
3.0776637 18.273821 0.3234629 5 8
0.66967237 3.9719887 -0.92994767 5 1
3.1640475 18.746773 0.99637198 7 9
0.78023988 4.62287 -0.91130376 2 2
3.6382332 21.53339 1.9106282 12 10
0.92635983 5.4769711 -0.8797875 2 3
3.2940447 19.454922 2.4227629 8 11
1.1580846 6.8325067 -0.85089183 1 4
2.7827253 16.400244 2.6346695 92 12
1.521499 8.9670935 -0.7957319 1 5
1.8374428 10.817688 2.132863 81 13
2.2116795 13.007203 -0.69146276 1 6
1.8468997 10.850423 2.5410471 91 14
3.1228161 18.327019 -0.32451007 11 7
1.8388709 10.780505 2.9303493 13 15
0.59509981 3.4632821 -0.94158375 5 0
3.1421068 18.266909 0.3235327 5 8
0.68485504 3.977309 -0.93174726 5 1
3.3977478 19.711857 1.0482893 8 9
0.80370998 4.6626816 -0.91969937 2 2
3.6056497 20.896206 1.8551971 11 10
0.94681621 5.4814906 -0.88103902 2 3
3.2530315 18.813448 2.3442788 8 11
1.1832836 6.8362465 -0.85186678 1 4
2.8433247 16.409893 2.6377983 92 12
1.5555103 8.9774332 -0.79712647 1 5
1.8738531 10.80347 2.1313365 78 13
2.2570729 12.999402 -0.69146276 1 6
1.886096 10.85159 2.5428467 91 14
3.1871181 18.317974 -0.32454494 10 7
1.8758307 10.770215 2.9293141 11 15
0.60751837 3.4630864 -0.94210136 6 0
3.2072394 18.263708 0.32367235 5 8
0.69468665 3.9518621 -0.92634839 5 1
3.4720585 19.731352 1.0499641 6 9
0.81657529 4.6405134 -0.91588324 2 2
3.5741839 20.290915 1.8025551 10 10
0.96388769 5.4664793 -0.87916183 2 3
3.2600124 18.469654 2.3028433 8 11
1.2029933 6.8086171 -0.84894192 1 4
2.9033451 16.415428 2.6403012 93 12
1.5916984 8.9994164 -0.79956681 1 5
1.9122353 10.800731 2.1320999 79 13
2.3024328 12.991446 -0.69146276 1 6
1.9246472 10.848777 2.5437465 91 14
3.2538338 18.322491 -0.32482421 10 7
1.9147644 10.771209 2.9313846 11 15
0.62028491 3.4647479 -0.94313669 6 0
3.2727406 18.262241 0.32384688 2 8
0.71260518 3.9724307 -0.93174726 5 1
3.3792455 18.818768 1.0020244 14 9
0.83485198 4.6492286 -0.91817296 2 2
3.538547 19.686102 1.749913 11 10
0.98576069 5.4786353 -0.88166475 2 3
3.3248203 18.460114 2.303087 10 11
1.2309808 6.8278189 -0.85186678 1 4
2.9606245 16.405195 2.6403012 93 12
1.6252236 9.0055695 -0.80061269 1 5
1.9520171 10.805583 2.1343896 81 13
2.3477709 12.983329 -0.69146276 1 6
1.9618084 10.838159 2.5428467 91 14
3.3184807 18.314957 -0.32489401 10 7
1.955457 10.781567 2.9360435 8 15
0.63202918 3.4606607 -0.94261903 5 0
3.3386128 18.26251 0.3240563 4 8
0.72787142 3.9775863 -0.93354684 5 1
3.5226488 19.231203 1.0246334 9 9
0.84612465 4.6192498 -0.91283029 2 2
3.5094936 19.140589 1.7025002 10 10
1.0041671 5.4712749 -0.88103902 2 3
3.3942645 18.475729 2.3064992 10 11
1.252648 6.8117671 -0.85040432 1 4
3.0157304 16.383104 2.6384242 93 12
1.6566515 8.9998417 -0.80061269 1 5
1.9911494 10.806425 2.135916 83 13
2.3930678 12.975056 -0.69146276 1 6
2.0010469 10.838909 2.5446463 91 14
3.3845766 18.31506 -0.32510343 10 7
1.9941266 10.780375 2.9375963 7 15
0.64445835 3.4603331 -0.94313669 6 0
3.4316638 18.408012 0.32684866 1 8
0.7367478 3.9482019 -0.92724824 5 1
0.85935891 4.6008296 -0.90977734 2 2
3.4785256 18.605314 1.655959 12 10
1.0268945 5.4871531 -0.88416773 2 3
3.4547117 18.442307 2.3038182 12 11
1.2778831 6.8151574 -0.85137933 1 4
3.0751355 16.400196 2.6428041 96 12
1.6851188 8.9783373 -0.79921812 1 5
2.0295815 10.803269 2.1366794 83 13
2.4457302 13.005879 -0.69355619 1 6
2.0385118 10.829942 2.5441964 90 14
3.4630535 18.398062 -0.32677886 5 7
2.030225 10.775601 2.9381139 7 15
0.65473241 3.4485722 -0.94054842 5 0
3.2330906 17.029167 0.30255491 11 8
0.75056148 3.9495668 -0.92814809 5 1
3.2324677 16.993557 0.90656352 10 9
0.88349336 4.6402311 -0.91817296 2 2
3.2323763 16.960783 1.5105833 10 10
1.0428649 5.472075 -0.88229048 2 3
3.23315 16.948801 2.1185768 6 11
1.3004777 6.8108821 -0.85137933 1 4
3.1060395 16.251602 2.6205904 15 12
1.7171913 8.9763155 -0.79956681 1 5
2.0639176 10.788766 2.1351528 83 13
