# .PCD v0.7 - Point Cloud Data file format
VERSION 0.7
FIELDS x y z intensity ring
SIZE 4 4 4 4 2
TYPE F F F F U
COUNT 1 1 1 1 1
WIDTH 1217
HEIGHT 1
VIEWPOINT 0 0 0 1 0 0 0
POINTS 1217
DATA ascii
0.21475498 -26.179134 -0.45697382 22 7
0.21159793 -26.355402 7.0621367 19 15
0.028916055 -4.2480431 -1.1382862 4 0
0.17392379 -26.223431 0.45774171 61 8
0.032102838 -4.9711328 -1.1477003 3 1
0.16479576 -26.227489 1.3745518 46 9
0.039522994 -6.2901435 -1.2227042 8 2
0.16043325 -26.263187 2.2977738 42 10
0.050042078 -8.4327354 -1.3356376 7 3
0.15130986 -26.270277 3.2256379 64 11
0.06974671 -12.488022 -1.5333602 9 4
0.14237453 -26.31361 4.1677275 64 12
0.11369693 -21.013424 -1.8384633 7 5
0.13229664 -26.137794 -1.3698415 36 6
0.12889841 -26.375885 6.0894251 17 14
0.12332362 -26.169725 -0.4567993 25 7
0.11960153 -26.355982 7.0621367 19 15
0.014112948 -4.255846 -1.1403568 4 0
0.082360014 -26.215878 0.45760211 61 8
0.014739039 -4.9673166 -1.1468004 3 1
0.077811636 -26.223896 1.3743424 51 9
0.017538469 -6.2804265 -1.220796 7 2
0.068727739 -26.251635 2.2967281 42 10
0.020644419 -8.4486628 -1.3381406 8 3
0.059598818 -26.266676 3.2251506 64 11
0.026156096 -12.488189 -1.5333602 9 4
0.05508884 -26.302086 4.1658502 60 12
0.040319648 -21.00174 -1.8374174 7 5
0.041072823 -26.146086 -1.3702601 39 6
0.036833324 -26.380072 6.0903249 17 14
0.036528826 -26.161991 -0.45665964 25 7
0.032209717 -26.363958 7.0642071 19 15
-0.00073837925 -4.2326875 -1.1341451 4 0
-0.004574697 -26.224007 0.45774171 61 8
-0.0017375291 -4.9790306 -1.1494999 3 1
-0.013735362 -26.231998 1.3747611 46 9
-0.0043859622 -6.2824125 -1.2211776 8 2
-0.022891676 -26.235775 2.2953336 42 10
-0.0073700622 -8.4467077 -1.3378277 10 3
-0.027505953 -26.266729 3.2251506 64 11
-0.015237455 -12.472326 -1.5314103 9 4
-0.03671499 -26.298166 4.1652246 57 12
-0.033000946 -21.00972 -1.8381145 11 5
-0.0083169313 -5.2948904 1.0292237 0 13
-0.045618013 -26.13809 -1.3698415 39 6
-0.050632395 -26.372252 6.0885253 17 14
-0.054778833 -26.15596 -0.45655498 10 7
-0.059824236 -26.367779 7.0652428 19 15
-0.014754403 -4.2268658 -1.1325922 3 0
-0.096055634 -26.207832 0.45746249 61 8
-0.019058451 -4.9634047 -1.1459007 3 1
-0.1052355 -26.215811 1.3739237 51 9
-0.025258068 -6.2921801 -1.2230858 7 2
-0.10991023 -26.23954 2.2956822 42 10
-0.036821298 -8.4387302 -1.3365762 10 3
-0.11913732 -26.25456 3.2236881 70 11
-0.058774251 -12.472198 -1.5314103 10 4
-0.12856464 -26.307756 4.1667891 30 12
-0.10252628 -20.979612 -1.8354999 10 5
-0.026441919 -5.224153 1.0154855 0 13
-0.13681558 -26.129782 -1.3694227 39 6
-0.14279145 -26.391401 6.0930243 13 14
-0.033906776 -6.070981 -0.10597102 3 7
-0.15182081 -26.35968 7.0631719 19 15
-0.029697763 -4.2538342 -1.1398392 3 0
-0.18750958 -26.203339 0.45739269 61 8
-0.036440536 -4.9711027 -1.1477003 3 1
-0.19668591 -26.207296 1.373505 51 9
-0.047221895 -6.2920537 -1.2230858 7 2
-0.20150338 -26.238997 2.2956822 42 10
-0.066401079 -8.4543524 -1.3390791 10 3
-0.21075411 -26.250015 3.2232008 64 11
-0.10211493 -12.448096 -1.5284854 10 4
-0.22044231 -26.313072 4.1677275 3 12
-0.17558934 -20.959202 -1.8337568 10 5
-0.045114134 -5.2750711 1.0254076 0 13
-0.22811259 -26.139132 -1.3699461 25 6
-0.23456445 -26.351768 6.0840263 17 14
-0.055116564 -6.072825 -0.10600592 20 7
-0.24354716 -26.328079 7.0548897 19 15
-0.044546351 -4.2537045 -1.1398392 3 0
-0.2789546 -26.200525 0.45735776 21 8
-0.053707901 -4.963151 -1.1459007 3 1
-0.28335151 -26.184532 1.3723537 8 9
-0.069228321 -6.2957768 -1.2238491 7 2
-0.095711432 -8.4362917 -1.3362634 7 3
-0.30290601 -26.294773 3.2288067 5 11
-0.14537945 -12.431785 -1.5265356 3 4
-0.30765319 -26.308245 4.1671019 3 12
-0.3212277 -26.672804 5.1850438 4 13
-0.074128181 -6.0672202 -0.31799328 1 6
-0.32655174 -26.35079 6.0840263 13 14
-0.075452939 -6.0886054 -0.10628515 19 7
-0.33109665 -26.346445 7.0600662 19 15
-0.059312969 -4.2477279 -1.1382862 4 0
-0.085239589 -6.1044755 0.1065644 2 8
-0.070386581 -4.9785337 -1.1494999 3 1
-0.087178841 -6.0910168 0.31924936 2 9
-0.090919293 -6.275866 -1.2200328 7 2
-0.08970052 -6.1179705 0.53531057 1 10
-0.089368984 -6.0953579 -0.96551365 1 3
-0.090906985 -6.127306 0.75242138 0 11
-0.091171876 -6.0736985 -0.74584043 0 4
-0.39927498 -26.293184 4.1649117 64 12
-0.080777593 -5.2589383 1.0223546 0 13
-0.41356605 -26.326181 6.0786276 12 14
-0.096578091 -6.0803075 -0.10614554 8 7
-0.42299643 -26.341265 7.059031 19 15
-0.073231891 -4.2378497 -1.135698 3 0
-0.087695919 -4.9743609 -1.1486001 3 1
-0.10883047 -6.1126418 0.32040074 26 9
-0.11194025 -6.2873077 -1.2223225 7 2
-0.11009564 -6.1236157 0.53583348 8 10
-0.11028683 -6.0752583 -0.96238494 6 3
-0.1120759 -6.1150422 0.75095892 4 11
-0.11218903 -6.0634193 -0.74462175 12 4
-0.49097988 -26.287682 4.1642857 64 12
-0.11370075 -6.0876813 -0.53269589 21 5
-0.09891171 -5.2468467 1.0200649 0 13
-0.11550079 -6.070569 -0.31820264 51 6
-0.50553143 -26.328474 6.0795269 12 14
-0.11749274 -6.0639386 -0.1058663 0 7
-0.51433861 -26.308725 7.0507483 19 15
-0.088064037 -4.2395 -1.1362157 4 0
-0.12814793 -6.1177258 0.10680873 8 8
-0.10489468 -4.9662309 -1.1468004 3 1
-0.13016781 -6.1122246 0.32040074 2 9
-0.13175547 -6.1867752 -1.20286 2 2
-0.24561845 -11.439656 1.0010709 2 10
-0.13123572 -6.0629869 -0.96050775 1 3
-0.25008428 -11.46118 1.407591 1 11
-0.13409515 -6.0967288 -0.74876529 1 4
-0.58291072 -26.293707 4.1655374 64 12
-0.11705139 -5.2386189 1.0185385 0 13
-0.59769475 -26.33824 6.0822268 17 14
-0.13390402 -5.8555775 -0.1022362 0 7
-0.60661584 -26.326082 7.0559249 28 15
-0.10286274 -4.2391667 -1.1362157 4 0
-0.27731186 -11.346883 0.19811971 4 8
-0.12251727 -4.9775233 -1.1494999 5 1
-0.28211758 -11.38088 0.59662998 3 9
-0.15013896 -6.0567427 -1.1776732 1 2
-0.28296363 -11.335157 0.99200666 3 10
-0.21047923 -8.3729534 -1.3265644 1 3
-0.28747666 -11.357046 1.3949165 2 11
-0.28814369 -11.3054 -1.3885795 3 4
-0.67459184 -26.287561 4.1649117 57 12
-0.2897023 -11.289147 -0.98799747 4 5
-0.13645193 -5.2813554 1.0269341 0 13
-0.29222977 -11.234776 -0.5889889 2 6
-0.69024473 -26.359369 6.0876255 13 14
-0.13774365 -5.2253885 -0.091241181 7 7
-0.69881552 -26.335392 7.059031 28 15
-0.11803441 -4.2522998 -1.1398392 3 0
-0.31446177 -11.257895 0.19658391 4 8
-0.13945346 -4.961482 -1.1459007 5 1
-0.31805846 -11.246064 0.58961695 4 9
-0.16017905 -5.6636877 -1.1013496 1 2
-0.32020569 -11.252446 0.98485982 3 10
-0.23981829 -8.3761158 -1.3271902 2 3
-0.3238607 -11.24287 1.3810235 3 11
-0.32484522 -11.209081 -1.3768799 3 4
-0.76646119 -26.288996 4.1655374 16 12
-0.32585442 -11.176541 -0.97823608 4 5
-0.15523258 -5.2926211 1.0292237 0 13
-0.32826427 -11.125884 -0.58333665 2 6
-0.78097761 -26.313944 6.0777278 12 14
-0.79027575 -26.317345 7.0548897 19 15
-0.13263622 -4.2441382 -1.1377686 3 0
-0.35030159 -11.146798 0.19466414 3 8
-0.15714025 -4.9726515 -1.1486001 3 1
-0.35414267 -11.145072 0.58438331 2 9
-0.17433716 -5.4864902 -1.067004 1 2
-0.35585445 -11.137751 0.97492415 2 10
-0.26968846 -8.3949718 -1.3303189 1 3
-0.35919479 -11.120644 1.3661555 1 11
-0.36049128 -11.10074 -1.363718 2 4
-0.18029448 -5.5221863 0.87509453 0 12
-0.36232921 -11.097673 -0.97143793 1 5
-0.87321717 -26.322742 6.0804267 13 14
-0.17495352 -5.2462845 -0.091625139 49 7
-0.88168013 -26.300909 7.0512662 19 15
-0.14731567 -4.2397876 -1.1367333 3 0
-0.17463392 -4.9759674 -1.1494999 3 1
-0.19030376 -5.3955951 -1.0494496 1 2
-0.18934265 -5.2385559 -0.45861349 1 5
-0.1898174 -5.201395 -0.27277502 1 6
-0.96466452 -26.30785 6.0777278 17 14
-0.19216117 -5.2156668 -0.091101564 13 7
-0.97319704 -26.289951 7.0491958 19 15
-0.16196637 -4.2353868 -1.135698 3 0
-0.20227292 -5.2653141 0.091974184 2 8
-0.19170178 -4.9675384 -1.1477003 3 1
-0.20262419 -5.2268958 0.27413577 2 9
-0.20685539 -5.3360438 -1.0380009 1 2
-0.20273001 -5.2061524 0.45582449 1 10
-0.2047565 -5.2346964 -0.82972854 1 3
-0.2080065 -5.2941265 0.65053862 0 11
-0.20650372 -5.2326002 -0.64298266 1 4
-0.21101806 -5.32341 0.84380758 0 12
-0.20652218 -5.2099915 -0.45617315 3 5
-0.20741403 -5.1867309 -0.27204233 2 6
-1.056957 -26.316006 6.0804267 13 14
-0.21044682 -5.2169619 -0.091136463 3 7
-1.0655864 -26.301836 7.0533366 19 15
-0.17715305 -4.2444463 -1.1382862 4 0
-0.21981382 -5.2445965 0.091625139 3 8
-0.20969567 -4.9824152 -1.1512995 3 1
-0.22154301 -5.2421203 0.27497312 2 9
-0.2239884 -5.2999821 -1.0311319 1 2
-0.2222534 -5.2372627 0.45861349 1 10
-0.22184989 -5.2063193 -0.82534832 1 3
-0.22309102 -5.2140379 0.64078909 0 11
-0.22519383 -5.2417641 -0.6442014 2 4
-0.22874841 -5.302906 0.84067887 0 12
-0.22556661 -5.2291446 -0.45791626 3 5
-0.22605506 -5.2193265 1.0154855 0 13
-0.22517025 -5.1779933 -0.27162364 2 6
-1.1481345 -26.296583 6.076828 8 14
-0.22883083 -5.2201915 -0.091206275 1 7
-1.1567936 -26.284445 7.0497131 9 15
-0.19179288 -4.2399426 -1.1372509 4 0
-0.23884477 -5.259778 0.091904372 3 8
-0.22655456 -4.9699731 -1.1486001 3 1
-0.23819791 -5.2253952 0.27413577 2 9
-0.24338438 -5.3187804 -1.034948 1 2
-0.23980166 -5.2205334 0.45721903 2 10
-0.24075066 -5.2212996 -0.8278513 1 3
-0.24165733 -5.221159 0.64176404 1 11
-0.24184088 -5.2251248 -0.64225149 2 4
-0.24523167 -5.2784395 0.83692449 0 12
-0.24381788 -5.2283254 -0.45791626 3 5
-0.24225315 -5.1753616 1.00709 2 13
-0.24324359 -5.177176 -0.27162364 2 6
-0.24419393 -5.197403 1.2012386 3 14
-0.24632892 -5.2233987 -0.091276079 1 7
-0.24469811 -5.1696429 1.3867525 6 15
-0.20585214 -4.2392831 -1.1372509 4 0
-0.25404698 -5.2130189 0.091101564 4 8
-0.24379548 -4.9847651 -1.1521993 3 1
-0.25337777 -5.1806893 0.27183297 2 9
-0.25948101 -5.2865696 -1.0288421 1 2
-0.25515202 -5.1799097 0.45373279 2 10
-0.25611278 -5.1810136 -0.82159394 1 3
-0.25719914 -5.1846404 0.63737667 1 11
-0.25710079 -5.1826582 -0.63713294 1 4
-0.25998434 -5.2223549 0.82816416 0 12
-0.25707862 -5.1459017 -0.45076951 4 5
-0.2592169 -5.170608 1.0063267 13 13
-0.25820288 -5.1324573 -0.26932088 17 6
-0.26162383 -5.2004576 1.2021384 7 14
-0.25961632 -5.1426668 -0.089879893 6 7
-0.26056951 -5.1437211 1.3800232 9 15
-0.2193086 -4.2270021 -1.1341451 4 0
-0.25991783 -4.9761453 -1.1503997 5 1
-0.270206 -5.155839 0.27057692 15 9
-0.2733117 -5.2150998 -1.0151039 1 2
-0.2708627 -5.1511803 0.45129246 7 10
-0.27141911 -5.1446276 -0.81596226 2 3
-0.27334154 -5.1639361 0.63493931 2 11
-0.27392754 -5.1579418 -0.63420814 7 4
-0.27716067 -5.2016902 0.82503545 0 12
-0.27636203 -5.1697202 1.0063267 12 13
-0.28082183 -5.2189717 1.2066375 7 14
-0.28019458 -5.1736441 1.3883054 15 15
-0.23395503 -4.2242818 -1.1336274 4 0
-0.28708461 -5.167243 0.090333655 27 8
-0.27663514 -4.9635334 -1.1477003 5 1
-0.28875858 -5.1648355 0.27110028 11 9
-0.29107532 -5.2062731 -1.0135775 2 2
-0.28973529 -5.1661177 0.45268691 7 10
-0.28882092 -5.1337876 -0.81439793 3 3
-0.29024702 -5.1431313 0.6325019 4 11
-0.29226655 -5.1628995 -0.63493931 8 4
-0.29554039 -5.2046351 0.82566124 1 12
-0.29153436 -5.1340866 -0.44989792 15 5
-0.29418293 -5.1648045 1.0055635 12 13
-0.2940433 -5.146533 -0.27015823 26 6
-0.29836887 -5.206286 1.203938 7 14
-0.29562736 -5.1427259 -0.089914799 26 7
-0.29769576 -5.1629915 1.3857172 12 15
-0.25006196 -4.2465816 -1.1398392 4 0
-0.30547312 -5.1721983 0.090438366 38 8
-0.29349861 -4.9547563 -1.1459007 5 1
-0.30702314 -5.1677833 0.27130961 13 9
-0.30901471 -5.2013054 -1.0128142 5 2
-0.30835873 -5.1750188 0.4535585 13 10
-0.30756447 -5.1465516 -0.81658798 10 3
-0.30867338 -5.1500134 0.63347691 13 11
-0.30980974 -5.1539221 -0.63396436 15 4
-0.31477618 -5.2213187 0.82847708 3 12
-0.31173211 -5.170825 -0.45320985 43 5
-0.31197283 -5.1598263 1.0048002 12 13
-0.31188554 -5.1434817 -0.27005357 41 6
-0.31701368 -5.2129936 1.2057376 7 14
-0.31571689 -5.161921 1.3857172 12 15
-0.26416209 -4.2341137 -1.1367333 6 0
-0.3242743 -5.183075 0.090647802 62 8
-0.31115836 -4.9595366 -1.1472504 8 1
-0.32493427 -5.1646867 0.27120495 21 9
-0.32741484 -5.204114 -1.0135775 11 2
-0.32617089 -5.1699343 0.45320985 16 10
-0.32615054 -5.1553035 -0.81815231 11 3
-0.32740197 -5.1607904 0.63493931 14 11
-0.32868132 -5.1666765 -0.63567054 23 4
-0.33249718 -5.2123017 0.82722551 15 12
-0.3282578 -5.1458445 -0.45111811 28 5
-0.33173615 -5.1861353 1.0101428 16 13
-0.33047706 -5.1523271 -0.27057692 55 6
-0.33383277 -5.1904631 1.2007887 25 14
-0.33152193 -5.1405368 -0.089914799 91 7
-0.27906695 -4.2350936 -1.1372509 5 0
-0.34289277 -5.1898932 0.090787418 60 8
-0.32924151 -4.9700871 -1.1499498 10 1
-0.34205943 -5.1635809 0.27120495 42 9
-0.34466797 -5.1892276 -1.0109061 16 2
-0.34624973 -5.1856694 -0.8231582 23 3
-0.34525156 -5.1437111 -0.63298941 37 4
-0.34768927 -5.1665349 -0.45303556 62 5
-0.34832478 -5.1491494 -0.27047226 68 6
-0.3472138 -5.1194582 -0.089565754 57 7
-0.35150042 -5.1692896 1.3883054 69 15
-0.29384908 -4.2340937 -1.1372509 4 0
-0.34653223 -4.9806318 -1.1526492 5 1
-0.36105454 -5.1763024 0.27193764 60 9
-0.36309063 -5.1794562 0.45425573 70 10
-0.36391449 -5.1782446 0.63737667 55 11
-0.36755043 -5.2040062 0.82628691 51 12
-0.36501825 -5.1553521 -0.45216399 83 5
-0.36744541 -5.1896324 1.0112877 70 13
-0.36610532 -5.1579275 -0.27099562 89 6
-0.36957043 -5.1939025 1.2021384 39 14
-0.36707395 -5.1461391 -0.090054423 63 7
-0.36830193 -5.1506891 1.3836466 75 15
-0.3083083 -4.2388759 -1.1388038 3 0
-0.37719285 -5.1734781 0.090543084 100 8
-0.36306426 -4.967731 -1.1499498 6 1
-0.37882873 -5.1710272 0.27172831 72 9
-0.38055515 -5.194593 -1.0124326 62 2
-0.37938902 -5.1663017 0.45320985 73 10
-0.37921926 -5.1516719 -0.81815231 78 3
-0.38169575 -5.1729836 0.63688928 78 11
-0.38157299 -5.1590595 -0.6351831 93 4
-0.38615185 -5.208602 0.82722551 61 12
-0.3822735 -5.1441121 -0.45129246 88 5
-0.38366711 -5.1628656 1.0063267 84 13
-0.38410714 -5.1566181 -0.27099562 89 6
-0.38827819 -5.2003541 1.203938 42 14
-0.38563216 -5.1528029 -0.090194039 64 7
-0.38627973 -5.1493721 1.3836466 75 15
-0.32325381 -4.2300129 -1.1367333 3 0
-0.39524952 -5.1721296 0.090543084 100 8
-0.37921154 -4.9508886 -1.1463506 8 1
-0.39687684 -5.1696734 0.27172831 78 9
-0.40004429 -5.1990352 -1.0135775 67 2
-0.39924121 -5.176795 0.45425573 73 10
-0.39748904 -5.1423693 -0.81690085 65 3
-0.39898506 -5.1617236 0.63567054 77 11
-0.39988649 -5.1616535 -0.63567054 93 4
-0.40494215 -5.2151003 0.82847708 61 12
-0.40053615 -5.146719 -0.45164105 88 5
-0.40258744 -5.1614246 1.0063267 86 13
-0.40238255 -5.1472106 -0.27057692 93 6
-0.40824926 -5.2105527 1.2066375 51 14
-0.40361661 -5.1514254 -0.090194039 64 7
-0.40455404 -5.151844 1.3846819 75 15
-0.33894101 -4.2404132 -1.1398392 3 0
-0.41516122 -5.1826062 0.090752512 100 8
-0.39829072 -4.9611206 -1.14905 13 1
-0.41550165 -5.1642017 0.27151898 81 9
-0.41818938 -5.1976075 -1.0135775 67 2
-0.41698903 -5.1713982 0.4539071 76 10
-0.41575524 -5.1448884 -0.81752664 60 3
-0.41822165 -5.1641841 0.63615805 79 11
-0.41783887 -5.1482825 -0.63420814 93 4
-0.42405444 -5.2135811 0.82847708 61 12
-0.41914594 -5.1532331 -0.45233828 89 5
-0.42092028 -5.1639018 1.00709 86 13
-0.42034733 -5.1457744 -0.27057692 89 6
-0.42484513 -5.1896734 1.2021384 54 14
-0.42216727 -5.145926 -0.090124227 67 7
-0.42406699 -5.1580281 1.3867525 74 15
-0.3529371 -4.229578 -1.1372509 4 0
-0.43291685 -5.1771402 0.0906827 100 8
-0.4147923 -4.9499898 -1.1468004 7 1
-0.43319085 -5.1587396 0.27130961 81 9
-0.43567234 -5.1882911 -1.012051 67 2
-0.43470407 -5.1659403 0.4535585 76 10
-0.43404379 -5.1473427 -0.81815231 60 3
-0.43657929 -5.1666489 0.63664556 83 11
-0.43580669 -5.1467929 -0.63420814 93 4
-0.44124809 -5.2002592 0.82659984 61 12
-0.43645725 -5.1437974 -0.45164105 89 5
-0.4396092 -5.1702256 1.0086164 86 13
-0.43915421 -5.1542263 -0.27110028 97 6
-0.44362053 -5.1959257 1.203938 51 14
-0.43944621 -5.1364508 -0.089984603 67 7
-0.44173941 -5.1526666 1.3857172 75 15
-0.36769953 -4.2283201 -1.1372509 4 0
-0.45133251 -5.1795816 0.090752512 100 8
-0.43223754 -4.9504538 -1.1472504 8 1
-0.45099056 -5.1652341 0.27172831 81 9
-0.45514977 -5.2023845 -1.0151039 81 2
-0.45273346 -5.1643915 0.4535585 76 10
-0.45200825 -5.1457963 -0.81815231 65 3
-0.45530853 -5.1730032 0.63762045 83 11
-0.45481616 -5.157104 -0.63567054 93 4
-0.45849052 -5.1987672 0.82659984 61 12
-0.45335764 -5.1303344 -0.45059517 91 5
-0.45765349 -5.1686597 1.0086164 86 13
-0.45696685 -5.1506729 -0.27099562 93 6
-0.46279046 -5.2059922 1.2066375 51 14
-0.45718476 -5.1429329 -0.090124227 67 7
-0.45813787 -5.1434765 1.3836466 75 15
-0.38245651 -4.2270112 -1.1372509 4 0
-0.46742517 -5.1661072 0.090543084 100 8
-0.44654033 -4.9257035 -1.1418515 6 1
-0.46865666 -5.1596494 0.27151898 81 9
-0.47241658 -5.1909881 -1.0131959 67 2
-0.47039607 -5.1588111 0.45320985 76 10
-0.4679938 -5.1324658 -0.81627518 65 3
-0.47246054 -5.1714649 0.63762045 79 11
-0.47155297 -5.1516142 -0.6351831 93 4
-0.47699577 -5.2010689 0.82722551 61 12
-0.47162789 -5.132689 -0.4509438 89 5
-0.47299469 -5.1475635 1.0048002 87 13
-0.4736779 -5.1451511 -0.27078626 89 6
-0.48040974 -5.2083097 1.2075372 51 14
-0.47513431 -5.1413054 -0.090124227 64 7
-0.4760893 -5.1418462 1.3836466 75 15
-0.39737421 -4.2353368 -1.1398392 3 0
-0.48545492 -5.164444 0.090543084 100 8
-0.46153906 -4.9008327 -1.1364527 6 1
-0.48666447 -5.1579819 0.27151898 81 9
-0.4903658 -5.1972113 -1.0147223 65 2
-0.48825151 -5.1651568 0.4539071 73 10
-0.48590675 -5.1308007 -0.81627518 65 3
-0.48938394 -5.157927 0.63615805 79 11
-0.48953333 -5.1499367 -0.6351831 93 4
-0.49589664 -5.2072387 0.82847708 73 12
-0.48940098 -5.1390305 -0.45164105 89 5
-0.49133259 -5.1497903 1.0055635 86 13
-0.49144569 -5.1414785 -0.27068159 97 6
-0.49821585 -5.2027211 1.2066375 54 14
-0.49345937 -5.1435971 -0.090194039 64 7
-0.49403495 -5.1401529 1.3836466 75 15
-0.41290414 -4.2416148 -1.1419097 3 0
-0.50386822 -5.1666989 0.090612896 100 8
-0.47826397 -4.8953133 -1.135553 10 1
-0.50388759 -5.1483011 0.27110028 84 9
-0.50850403 -5.1954679 -1.0147223 65 2
-0.50627786 -5.1634212 0.4539071 73 10
-0.50381374 -5.1290731 -0.81627518 68 3
-0.50738561 -5.1561875 0.63615805 83 11
-0.50633806 -5.1363435 -0.63372064 93 4
-0.5132938 -5.1976123 0.82722551 57 12
-0.50733668 -5.1372905 -0.45164105 91 5
-0.51046616 -5.1597652 1.0078532 86 13
-0.50899535 -5.1357565 -0.27047226 100 6
-0.51560313 -5.1931939 1.2048379 56 14
-0.51101583 -5.1378632 -0.090124227 64 7
-0.51274002 -5.1460862 1.3857172 75 15
-0.42673838 -4.2305379 -1.1393216 4 0
-0.52189982 -5.1649084 0.090612896 100 8
-0.49652657 -4.9052467 -1.1382524 8 1
-0.52225912 -5.1504846 0.27130961 88 9
-0.52564692 -5.1838946 -1.0128142 73 2
-0.52429795 -5.1616225 0.4539071 86 10
-0.52211457 -5.1312137 -0.81690085 82 3
-0.52538115 -5.1543846 0.63615805 83 11
-0.52466697 -5.1384945 -0.63420814 103 4
-0.5302279 -5.1839981 0.82534832 56 12
-0.52526623 -5.1354885 -0.45164105 92 5
-0.5284735 -5.1579523 1.0078532 87 13
-0.52712345 -5.1359353 -0.27057692 93 6
-0.53153539 -5.1700382 1.1998889 39 14
-0.52853703 -5.1320701 -0.090054423 73 7
-0.53169209 -5.1538734 1.3883054 40 15
-0.4405002 -4.2194147 -1.1367333 3 0
-0.54055023 -5.1690216 0.090717614 84 8
-0.51730055 -4.9383702 -1.1463506 8 1
-0.53960878 -5.1426721 0.27099562 32 9
-0.54394329 -5.1839814 -1.0131959 52 2
-0.54085517 -5.1458907 0.45268691 21 10
-0.54064268 -5.1352534 -0.81783944 51 3
-0.54170418 -5.1367264 0.63420814 18 11
-0.54322678 -5.1425533 -0.63493931 72 4
-0.54686534 -5.1683645 0.8231582 10 12
-0.54067373 -5.109848 -0.44954932 24 5
-0.54192227 -5.1131258 0.9994576 15 13
-0.54040945 -5.0903697 -0.26827416 13 6
-0.54216069 -5.0983896 1.1836925 9 14
-0.54348236 -5.102356 -0.089565754 36 7
-0.54250544 -5.0847521 1.370188 22 15
-0.45501837 -4.2159309 -1.1362157 4 0
-0.55257183 -5.1114359 0.089740276 19 8
-0.53369653 -4.9287848 -1.1445509 10 1
-0.55085438 -5.0872407 0.26816946 15 9
-0.5607655 -5.1703405 -1.0109061 11 2
-0.55171305 -5.0786071 0.44693464 16 10
-0.55450493 -5.0960231 -0.81189495 10 3
-0.55404007 -5.0834956 0.62787092 17 11
-0.55578834 -5.0912924 -0.62884587 17 4
-0.55714113 -5.1036849 0.81314647 14 12
-0.55244297 -5.0524735 -0.44466859 22 5
-0.55228716 -5.0428972 0.98610091 18 13
-0.55185872 -5.0308771 -0.26523864 19 6
-0.56101841 -5.1061521 1.1859419 14 14
-0.55581391 -5.0587826 -0.088832751 9 7
-0.55619454 -5.054122 1.3624235 26 15
-0.47080252 -4.2239165 -1.1388038 3 0
-0.56464571 -5.0658531 0.088972367 31 8
-0.54722691 -4.9018106 -1.1387023 7 1
-0.56572384 -5.0594835 0.26680872 21 9
-0.56985146 -5.0883574 -0.99525976 13 2
-0.5678829 -5.0627904 0.44571447 18 10
-0.56501555 -5.0372276 -0.80282182 15 3
-0.56734818 -5.0500674 0.6239711 20 11
-0.56645375 -5.0341868 -0.62202114 24 4
-0.57406813 -5.0938563 0.81189495 16 12
-0.56828839 -5.0346751 -0.44327411 30 5
-0.56702471 -5.0234795 0.98266637 21 13
-0.56472468 -4.9952812 -0.26345924 22 6
-0.5735631 -5.065536 1.1769439 15 14
-0.57053977 -5.0309815 -0.088378988 14 7
-0.57165265 -5.0329547 1.3572472 31 15
-0.48568809 -4.2300091 -1.1408744 3 0
-0.57912666 -5.0360389 0.088483699 38 8
-0.56455779 -4.9018064 -1.1391522 8 1
-0.58017665 -5.0297008 0.26534331 30 9
-0.58377898 -5.0531826 -0.98877227 16 2
-0.58329624 -5.0490041 0.44466859 22 10
-0.58236837 -5.0332623 -0.80250889 18 3
-0.58200228 -5.0224214 0.62080252 27 11
-0.57990319 -4.996686 -0.61763388 29 4
-0.58819664 -5.0604277 0.80688912 18 12
-0.58355558 -5.0128708 -0.441531 45 5
-0.58316004 -5.0018673 0.97885019 23 13
-0.58395618 -5.0011129 -0.26387793 48 6
-0.58830303 -5.0383406 1.1710953 16 14
-0.58414876 -4.9951944 -0.087785602 18 7
-0.58786994 -5.0194163 1.3541414 34 15
-0.5009613 -4.2262826 -1.1403568 4 0
-0.5966379 -5.0259395 0.088344082 39 8
-0.58113915 -4.8880935 -1.1364527 8 1
-0.59459388 -4.993825 0.2635639 26 9
-0.60043633 -5.0354137 -0.98571932 17 2
-0.5968439 -5.0052867 0.44100806 25 10
-0.598001 -5.0075569 -0.79875451 18 3
-0.60040659 -5.0202541 0.62080252 33 11
-0.59750485 -4.9886136 -0.61690265 30 4
-0.60297531 -5.0268564 0.80188316 18 12
-0.59812266 -4.9790473 -0.43874201 40 5
-0.60008132 -4.9880009 0.97656047 24 13
-0.5975042 -4.9592805 -0.26178449 31 6
-0.60396832 -5.0129333 1.1656964 18 14
-0.59862053 -4.9612551 -0.087227128 19 7
-0.60348147 -4.9942126 1.3479296 37 15
-0.51363498 -4.2014074 -1.1341451 4 0
-0.61262494 -5.00387 0.087995037 46 8
-0.59999973 -4.8936682 -1.1382524 8 1
-0.61240578 -4.9876471 0.26335454 26 9
-0.61697125 -5.01759 -0.98266637 20 2
-0.61372638 -4.9912004 0.43996218 27 10
-0.61393648 -4.9857264 -0.79562581 21 3
-0.61855978 -5.0160494 0.62055874 35 11
-0.61481255 -4.9785094 -0.61592776 31 4
-0.62236547 -5.032454 0.80313462 20 12
-0.61293954 -4.9491396 -0.43630162 40 5
-0.61690956 -4.9740791 0.97427082 25 13
-0.61592251 -4.9590392 -0.26188916 33 6
-0.62185675 -5.0068183 1.1647966 22 14
-0.6158132 -4.9510899 -0.087087512 18 7
-0.61891681 -4.9689627 1.341718 36 15
-0.53072065 -4.212913 -1.1377686 3 0
-0.62895811 -4.9857192 0.08771579 51 8
-0.61573374 -4.8740354 -1.1342032 7 1
-0.63018119 -4.9814067 0.26314521 29 9
-0.63486475 -5.0113997 -0.9819032 23 2
-0.63101494 -4.9810114 0.43926495 27 10
-0.62847686 -4.9540467 -0.79093277 25 3
-0.63443816 -4.9940562 0.61812133 36 11
-0.63205361 -4.9683456 -0.61495274 31 4
-0.64030701 -5.0262203 0.80250889 21 12
-0.63006592 -4.9389544 -0.43560439 40 5
-0.63314611 -4.9562044 0.97121781 28 13
-0.63358796 -4.952786 -0.2616798 30 6
-0.64020419 -5.0045056 1.1647966 21 14
-0.63319296 -4.9428492 -0.086982794 27 7
-0.63614178 -4.9589968 1.3396474 33 15
-0.5432111 -4.2054772 -1.1362157 4 0
-0.64410532 -4.9797525 0.087645985 56 8
-0.63104254 -4.872077 -1.1342032 7 1
-0.64377266 -4.9635568 0.26230782 29 9
-0.65048832 -5.0153351 -0.98304802 25 2
-0.64563322 -4.9711003 0.43856767 27 10
-0.64250845 -4.9402947 -0.78905553 27 3
-0.64704829 -4.9684172 0.61519653 35 11
-0.64611846 -4.9545255 -0.61349034 34 4
-0.65455961 -5.0124311 0.80063164 21 12
-0.64549154 -4.9429903 -0.43612733 44 5
-0.64861202 -4.960144 0.9723627 38 13
-0.64620548 -4.9350414 -0.26084244 32 6
-0.65414989 -4.9889441 1.1616472 23 14
-0.64923918 -4.9448013 -0.087052606 23 7
-0.65071005 -4.9493122 1.3375769 39 15
-0.55890387 -4.2112155 -1.1382862 4 0
-0.65937662 -4.9616151 0.087366745 51 8
-0.65035915 -4.8872304 -1.1382524 8 1
-0.65951145 -4.9494004 0.2616798 29 9
-0.66591614 -4.9974656 -0.97999501 25 2
-0.66298181 -4.9688163 0.43856767 28 10
-0.65870374 -4.9301906 -0.78780407 27 3
-0.66333395 -4.9582582 0.61422157 35 11
-0.66235483 -4.9443688 -0.61251533 41 4
-0.67100197 -5.0022845 0.79938018 24 12
-0.66221225 -4.9367576 -0.43577868 48 5
-0.66539961 -4.953958 0.9715994 40 13
-0.6618309 -4.9208794 -0.26021439 32 6
-0.67051971 -4.9789052 1.1598476 23 14
-0.66542685 -4.9345775 -0.086912982 24 7
-0.66772407 -4.945096 1.3370593 44 15
-0.57307822 -4.2054105 -1.1372509 4 0
-0.67831409 -4.9711714 0.087576173 56 8
-0.66978908 -4.902307 -1.1423014 20 1
-0.67483932 -4.939271 0.26126111 31 9
-0.67963183 -4.9678793 -0.97465241 27 2
-0.67869943 -4.9546289 0.43752185 36 10
-0.67778778 -4.9415598 -0.78999412 30 3
-0.68063825 -4.9559121 0.61422157 35 11
-0.67906862 -4.9380941 -0.61202788 45 4
-0.68328023 -4.9687204 0.79437429 31 12
-0.6794402 -4.9344158 -0.43577868 48 5
-0.6826883 -4.9516053 0.9715994 45 13
-0.67845786 -4.9145823 -0.26000506 42 6
-0.69189733 -5.0054903 1.1665962 52 14
-0.68014365 -4.9204588 -0.086703561 25 7
-0.68279487 -4.9332867 1.334471 40 15
-0.58614993 -4.1919055 -1.1341451 4 0
-0.69313401 -4.9570122 0.087366745 60 8
-0.68604219 -4.9000592 -1.1423014 28 1
-0.69207609 -4.9368854 0.26126111 43 9
-0.69696832 -4.9654765 -0.97465241 40 2
-0.69460386 -4.9423642 0.43665028 38 10
-0.69609559 -4.9529781 -0.79218423 47 3
-0.69596189 -4.9457645 0.61324656 36 11
-0.69460952 -4.9299183 -0.61129665 52 4
-0.6989646 -4.9545693 0.79249716 25 12
-0.69443178 -4.9162316 -0.4343842 54 5
-0.69416225 -4.9143229 0.96473032 21 13
-0.69251353 -4.8964844 -0.25916767 33 6
-0.68991268 -4.8719625 1.1360028 10 14
-0.69619292 -4.9101348 -0.08656393 26 7
-0.68181795 -4.8027239 1.2997893 12 15
-0.59895217 -4.1822886 -1.1320745 4 0
-0.70163375 -4.8931999 0.086284697 24 8
-0.69621921 -4.8494105 -1.1310539 7 1
-0.69651759 -4.8454776 0.25655088 12 9
-0.71231347 -4.9553647 -0.97312593 23 2
-0.69509476 -4.8295979 0.42688882 11 10
-0.70690036 -4.905549 -0.78498822 20 3
-0.69196129 -4.7959495 0.59496623 12 11
-0.70642149 -4.8901343 -0.60666561 23 4
-0.69306809 -4.7917862 0.76684189 9 12
-0.69618499 -4.8133364 -0.42549434 15 5
-0.68092346 -4.7020278 0.92351556 13 13
-0.68810695 -4.7457929 -0.25131726 10 6
-0.67667854 -4.6612439 1.0874133 8 14
-0.70872569 -4.8760128 -0.086005464 14 7
-0.66741991 -4.5862026 1.2418139 14 15
-0.61803573 -4.2107549 -1.1403568 4 0
-0.69225323 -4.7106819 0.083108358 15 8
-0.68052024 -4.6252327 -1.0793152 3 1
-0.68693888 -4.6632061 0.24702574 13 9
-0.71158057 -4.8304839 -0.94908404 7 2
-0.68375069 -4.6359487 0.4099806 10 10
-0.69776005 -4.7252212 -0.75651717 7 3
-0.6814065 -4.6089129 0.57205474 12 11
-0.69616377 -4.7030511 -0.58375424 14 4
-0.68083113 -4.5939345 0.73555493 9 12
-0.68727899 -4.6374412 -0.41015494 17 5
-0.67110997 -4.5229006 0.88878828 14 13
-0.67678732 -4.5556827 -0.24137343 10 6
-0.6659959 -4.4776654 1.0451226 9 14
-0.69776148 -4.6856098 -0.082689509 7 7
-0.6589247 -4.4195223 1.197297 14 15
-0.62985772 -4.1894679 -1.1351804 5 0
-0.68279696 -4.5362015 0.080071643 17 8
-0.67023522 -4.447474 -1.0383741 8 1
-0.67579907 -4.4790888 0.23739593 12 9
-0.69797641 -4.6260767 -0.90939575 10 2
-0.67522877 -4.4700203 0.39551273 11 10
-0.68973225 -4.5606437 -0.73054904 10 3
-0.67133892 -4.4337864 0.55060571 12 11
-0.68490583 -4.518064 -0.56108648 15 4
-0.67196399 -4.4274774 0.70927399 9 12
-0.67673516 -4.453671 -0.39411828 15 5
-0.66035068 -4.3458428 0.85444272 11 13
-0.66595137 -4.3775578 -0.23205765 9 6
-0.65814805 -4.3211913 1.0091304 9 14
-0.68547571 -4.4953451 -0.079373546 7 7
-0.65219021 -4.2720556 1.1579564 13 15
-0.64638555 -4.1947684 -1.1372509 23 0
-0.674263 -4.3756809 0.077279255 14 8
-0.6810019 -4.4142919 -1.0311756 12 1
-0.66795564 -4.3247161 0.2293362 10 9
-0.69032633 -4.4643912 -0.87810302 10 2
-0.6669184 -4.3080316 0.38139355 9 10
-0.6819371 -4.3999672 -0.70520669 10 3
-0.66309661 -4.2784057 0.5315941 10 11
-0.67449647 -4.3469467 -0.54012495 12 4
-0.65891147 -4.2416201 0.67986429 8 12
-0.66778231 -4.2937837 -0.38017333 13 5
-0.65271527 -4.1920829 0.82467651 10 13
-0.66045827 -4.236948 -0.22473061 10 6
-0.6511445 -4.1724172 0.97493786 10 14
-0.67649567 -4.3348627 -0.076581158 7 7
-0.6456275 -4.1323276 1.1206865 13 15
-0.65621072 -4.1619539 -1.1289687 9 0
-0.66473025 -4.2112107 0.074417062 14 8
-0.67466694 -4.2693272 -0.9978829 12 1
-0.65873057 -4.1684813 0.22117178 10 9
-0.678909 -4.2913098 -0.84452063 10 2
-0.65795296 -4.1541519 0.36797154 10 10
-0.67130524 -4.233676 -0.67892563 10 3
-0.65698785 -4.1387086 0.51453239 11 11
-0.66705704 -4.1974082 -0.52184457 11 4
-0.65511125 -4.1222401 0.66109216 8 12
-0.65834892 -4.1379509 -0.36657706 13 5
-0.64325666 -4.0385513 0.79491037 10 13
-0.65134114 -4.0847187 -0.21677555 9 6
-0.64297277 -4.0277152 0.94164515 10 14
-0.66640496 -4.1744995 -0.073788777 7 7
-0.63382864 -3.965991 1.0761696 12 15
-0.65689522 -4.0738134 -1.105675 3 0
-0.65258765 -4.0470996 0.071554869 15 8
-0.66708183 -4.1323977 -0.96638966 13 1
-0.65192926 -4.0340533 0.21415874 11 9
-0.6728763 -4.1590648 -0.81895226 11 2
-0.64823985 -4.0023565 0.35472387 11 10
-0.66197002 -4.0871291 -0.6557734 10 3
-0.64783293 -3.9954228 0.4969832 11 11
-0.65679985 -4.0462551 -0.5033204 12 4
-0.64731741 -3.9834423 0.63919127 9 12
-0.64847493 -3.986171 -0.35332939 14 5
-0.63394833 -3.8968759 0.76743382 12 13
-0.64369422 -3.9524314 -0.20986721 10 6
-0.6409598 -3.9313169 0.91959995 10 14
-0.65971202 -4.0418916 -0.071485057 7 7
-0.62773091 -3.8417339 1.0430408 13 15
-0.63807356 -3.8752754 -1.0523583 4 0
-0.64654672 -3.9224658 0.069390766 16 8
-0.65802443 -3.9877615 -0.933097 13 1
-0.64517337 -3.9056382 0.20745975 11 9
-0.66810614 -4.0444641 -0.79681838 11 2
-0.64363015 -3.8920717 0.34513673 11 10
-0.65461707 -3.9542201 -0.6348111 10 3
-0.6397053 -3.8599675 0.480409 12 11
-0.65110123 -3.9244807 -0.4884524 13 4
-0.64179933 -3.8642375 0.62041914 9 12
-0.64210373 -3.8660703 -0.34287068 15 5
-0.62887055 -3.7823124 0.74529999 13 13
-0.63322055 -3.804369 -0.20212148 10 6
-0.63418007 -3.8060324 0.8908062 10 14
-0.65144414 -3.9054382 -0.069111533 9 7
-0.62268281 -3.7290025 1.0130178 15 15
-0.63909674 -3.7987266 -1.0321704 9 0
-0.6409725 -3.8058136 0.067366287 15 8
-0.64861363 -3.8470833 -0.90070403 15 1
-0.63553476 -3.7655039 0.20013271 11 9
-0.66000158 -3.9104681 -0.77086836 11 2
-0.63729674 -3.7719288 0.33467805 11 10
-0.6506263 -3.8467348 -0.61791623 11 3
-0.63329226 -3.7402771 0.46578467 13 11
-0.64356482 -3.7969246 -0.47285309 12 4
-0.63677853 -3.7529113 0.60289848 9 12
-0.63626337 -3.7498753 -0.3327606 14 5
-0.62300187 -3.6678333 0.72316611 13 13
-0.62975663 -3.7036853 -0.19688788 10 6
-0.62751442 -3.6866078 0.86336219 12 14
-0.64357543 -3.7769783 -0.066877626 9 7
-0.61620581 -3.6125453 0.98195946 14 15
-0.64711887 -3.7660093 -1.0238881 13 0
-0.63526958 -3.6931911 0.06541162 16 8
-0.64484233 -3.7449307 -0.87730908 14 1
-0.63175011 -3.6688976 0.19510846 11 9
-0.65197146 -3.7823834 -0.74606317 13 2
-0.63013262 -3.6518786 0.32421938 12 10
-0.64454836 -3.7315402 -0.59976977 12 3
-0.6287564 -3.636328 0.45311025 13 11
-0.63582373 -3.6733823 -0.45774129 12 4
-0.62967968 -3.6378858 0.58475208 9 12
-0.62962037 -3.6337695 -0.32265055 14 5
-0.61902505 -3.5689175 0.70408523 13 13
-0.62149721 -3.5794601 -0.19039823 10 6
-0.61902267 -3.5615177 0.83456844 11 14
-0.63520873 -3.6546438 -0.064748429 10 7
-0.6136114 -3.5267384 0.95918339 15 15
-0.64290279 -3.6647825 -0.99697101 13 0
-0.62678182 -3.5728872 0.063317336 16 8
-0.6370343 -3.6276097 -0.85031497 13 1
-0.62242299 -3.5407755 0.18840946 11 9
-0.64509594 -3.6660056 -0.72354776 12 2
-0.6228295 -3.53585 0.3141093 11 10
-0.63978559 -3.6321108 -0.58412635 13 3
-0.61943972 -3.5130169 0.43799844 13 11
-0.63212913 -3.5813298 -0.44652933 12 4
-0.6231274 -3.526732 0.56723142 9 12
-0.6214807 -3.5138333 -0.31219187 15 5
-0.60965729 -3.4469838 0.68042493 13 13
-0.61804336 -3.4908459 -0.18579267 11 6
-0.61382586 -3.4635034 0.81207329 11 14
-0.62840056 -3.5421431 -0.062793761 10 7
-0.60227334 -3.3914287 0.92294878 14 15
-0.63532579 -3.5523329 -0.96694797 13 0
-0.6202203 -3.4643838 0.061432473 15 8
-0.63319308 -3.5332916 -0.82871968 15 1
-0.61996704 -3.4560146 0.18401325 11 9
-0.64026356 -3.5691581 -0.70484847 13 2
-0.61624044 -3.431792 0.3050451 13 10
-0.62799686 -3.4937601 -0.56222552 11 3
-0.61482489 -3.4170549 0.42629901 14 11
-0.62351471 -3.4618814 -0.431905 12 4
-0.61650795 -3.4195573 0.55033648 9 12
-0.61474741 -3.4097924 -0.30312768 15 5
-0.60564643 -3.3559606 0.66287047 13 13
-0.60892159 -3.3707404 -0.17951234 11 6
-0.61134797 -3.3807988 0.79317743 12 14
-0.62508899 -3.4533479 -0.061257947 10 7
-0.59964222 -3.3094678 0.90120792 15 15
-0.62899727 -3.4474678 -0.93899554 13 0
-0.61793888 -3.3835113 0.060036276 17 8
-0.62519687 -3.4198751 -0.80262536 14 1
-0.61333191 -3.3516684 0.1785703 11 9
-0.63363475 -3.4626172 -0.68424112 13 2
-0.60954857 -3.3277113 0.2959809 12 10
-0.62344474 -3.4002264 -0.5475207 14 3
-0.60524863 -3.2977393 0.41167468 14 11
-0.61909521 -3.3698728 -0.42069301 12 4
-0.61414951 -3.3396728 0.53782177 9 12
-0.61223185 -3.3292446 -0.29615521 16 5
-0.59674364 -3.2418387 0.64073664 13 13
-0.60475945 -3.2821698 -0.17490679 12 6
-0.60617912 -3.2866561 0.77158207 11 14
-0.61971408 -3.3567545 -0.059582517 10 7
-0.59223378 -3.2047715 0.87325549 14 15
-0.62547922 -3.3616838 -0.91621947 13 0
-0.61290336 -3.2909026 0.058430657 17 8
-0.61927396 -3.3218853 -0.78013027 14 1
-0.60467809 -3.2435906 0.17291802 12 9
-0.63203317 -3.3870463 -0.6697396 15 2
-0.60872257 -3.2589736 0.29005429 13 10
-0.6178844 -3.3048263 -0.53250295 13 3
-0.60214943 -3.2175577 0.40192512 14 11
-0.6098178 -3.2585332 -0.40704364 13 4
-0.60849023 -3.2483041 0.52342981 10 12
-0.60769325 -3.2409239 -0.2884855 18 5
-0.59501833 -3.1702719 0.62699842 13 13
-0.59629923 -3.174041 -0.1692545 14 6
-0.59980398 -3.1926966 0.74998683 11 14
-0.61236405 -3.2564185 -0.057837274 11 7
-0.58999282 -3.1344435 0.85462052 15 15
-0.61792016 -3.2608912 -0.88930225 15 0
-0.6059261 -3.1945481 0.056755226 15 8
-0.61429304 -3.2355735 -0.76033455 13 1
-0.59754926 -3.1473818 0.16789377 11 9
-0.61980331 -3.261493 -0.64531606 13 2
-0.60016632 -3.155158 0.28099012 13 10
-0.6133225 -3.2212574 -0.51936251 13 3
-0.5964644 -3.1297431 0.3912006 14 11
-0.60501188 -3.174593 -0.3968066 13 4
-0.59778982 -3.1337261 0.50528342 10 12
-0.60124815 -3.1488671 -0.28046718 17 5
-0.58857483 -3.079577 0.60944396 13 13
-0.59443712 -3.1073108 -0.16580033 14 6
-0.59281212 -3.0988169 0.72839153 11 14
-0.60360312 -3.1522415 -0.056022223 10 7
-0.58147424 -3.0338094 0.82770336 14 15
-0.60896826 -3.1563933 -0.86134982 18 0
-0.60134995 -3.1139843 0.055359036 17 8
-0.60985535 -3.1550725 -0.74188858 15 1
-0.59487391 -3.0746844 0.16412558 12 9
-0.61644435 -3.1861742 -0.63081461 15 2
-0.59320128 -3.0631723 0.27297178 14 10
-0.60934108 -3.1435738 -0.5071606 19 3
-0.5924719 -3.0536954 0.38193855 14 11
-0.60284412 -3.1042581 -0.38827574 14 4
-0.59741777 -3.0734472 0.49589729 12 12
-0.59495968 -3.0608015 -0.27279747 18 5
-0.58228612 -2.9928153 0.5926528 13 13
-0.58793986 -3.0190632 -0.16119476 14 6
-0.58871239 -3.0202188 0.71039546 11 14
-0.60234916 -3.0873091 -0.054905269 12 7
-0.57650942 -2.9521275 0.8059625 15 15
-0.60656905 -3.0860076 -0.84271485 19 0
-0.59059948 -3.0019894 0.053404365 16 8
-0.60429895 -3.0687954 -0.72209287 16 1
-0.58938146 -2.9902875 0.15972935 13 9
-0.61579335 -3.1242909 -0.6189844 19 2
-0.58846515 -2.9828944 0.26599932 14 10
-0.60194194 -3.0484059 -0.49214289 15 3
-0.59235078 -2.9970808 0.37511387 15 11
-0.59903753 -3.0281353 -0.37901369 14 4
-0.59126002 -2.9860823 0.48213109 13 12
-0.59016031 -2.9805284 -0.265825 17 5
-0.5778445 -2.9156582 0.57776964 16 13
-0.58448488 -2.9464655 -0.15742657 13 6
-0.58596808 -2.9512453 0.69464886 12 14
-0.595972 -2.9988887 -0.053369459 12 7
-0.56872034 -2.8591502 0.78111589 14 15
-0.60216999 -3.0081005 -0.82200933 18 0
-0.59086019 -2.948931 0.052496839 17 8
-0.60006303 -2.9921503 -0.70454669 18 1
-0.58487964 -2.9138005 0.15575182 12 9
-0.61008155 -3.0393536 -0.60257488 18 2
-0.58396089 -2.9065945 0.25937548 14 10
-0.5962227 -2.9649487 -0.47900239 16 3
-0.58009112 -2.8821235 0.36097702 13 11
-0.59627521 -2.959862 -0.37072656 14 4
-0.58996677 -2.9259079 0.472745 12 12
-0.58846772 -2.9158487 -0.26024702 17 5
-0.57520181 -2.8501165 0.56517625 15 13
-0.5789479 -2.8660986 -0.1532397 14 6
-0.58159173 -2.8765984 0.67755258 12 14
-0.59215778 -2.9262314 -0.052112885 11 7
-0.56642503 -2.7965589 0.76455152 14 15
-0.59928977 -2.9377301 -0.80337435 18 0
-0.58756047 -2.8802328 0.051310074 17 8
-0.59413064 -2.9098449 -0.68565083 16 1
-0.5814504 -2.8452096 0.15219298 13 9
-0.60469306 -2.9563129 -0.5865469 18 2
-0.58422047 -2.8536849 0.25484338 16 10
-0.59439695 -2.9008179 -0.46899059 17 3
-0.5813812 -2.8372977 0.35561478 14 11
-0.58706111 -2.8624763 -0.35878339 15 4
-0.58587682 -2.8541696 0.46148172 15 12
-0.5874154 -2.8591316 -0.25536633 16 5
-0.57299018 -2.7864523 0.55296451 16 13
-0.57253844 -2.7817945 -0.14884347 13 6
-0.57365131 -2.7847404 0.65640718 10 14
-0.588651 -2.8575554 -0.050926123 12 7
-0.56604105 -2.7453709 0.75109291 16 15
-0.59304553 -2.8561769 -0.78163356 18 0
-0.58183801 -2.7997453 0.049913883 16 8
-0.59288615 -2.8504107 -0.67215377 16 1
-0.57396382 -2.7570245 0.14758742 15 9
-0.59980375 -2.8811462 -0.57204539 17 2
-0.5787341 -2.7775092 0.24821955 14 10
-0.59000099 -2.8291097 -0.45772728 17 3
-0.5755527 -2.7574191 0.34586522 14 11
-0.58293468 -2.7903523 -0.35000879 15 4
-0.58299232 -2.7881956 0.45115703 16 12
-0.57748491 -2.7594521 -0.24665076 15 5
-0.56823593 -2.7152569 0.53922629 16 13
-0.57241803 -2.7328632 -0.14633135 13 6
-0.57137316 -2.7255025 0.64291006 16 14
-0.58269501 -2.7770951 -0.049529929 12 7
-0.56101191 -2.6714346 0.73142266 16 15
-0.58912134 -2.7859423 -0.76299858 18 0
-0.58002323 -2.7429173 0.04893655 17 8
-0.5923413 -2.7987542 -0.6604563 17 1
-0.57199526 -2.700295 0.1446566 15 9
-0.59733003 -2.8174706 -0.55983365 18 2
-0.5756765 -2.7130017 0.24264158 14 10
-0.58477241 -2.7535017 -0.44583827 16 3
-0.5711531 -2.6893728 0.33757812 14 11
-0.58194089 -2.7378156 -0.34367159 15 4
-0.57422429 -2.6991973 0.43707794 15 12
-0.57466578 -2.6989582 -0.24142142 16 5
-0.56345326 -2.6440308 0.52548802 16 13
-0.56993246 -2.672147 -0.14319119 14 6
-0.56508541 -2.6471581 0.62491405 15 14
-0.57819128 -2.7085531 -0.048343167 12 7
-0.55176651 -2.5825565 0.70761132 19 15
-0.5840801 -2.7198589 -0.74539888 18 0
-0.57314849 -2.6666868 0.047610167 17 8
-0.58358699 -2.7129476 -0.64066058 17 1
-0.57085794 -2.6515226 0.14214447 16 9
-0.59130299 -2.7464862 -0.54609537 18 2
-0.56782901 -2.6352201 0.23584343 16 10
-0.57926118 -2.6859972 -0.43520072 17 3
-0.56373423 -2.611788 0.32807231 15 11
-0.57676488 -2.6698995 -0.33538446 15 4
-0.57190108 -2.6451478 0.4286305 24 12
-0.56924778 -2.6328759 -0.23566914 19 5
-0.5609917 -2.5903111 -0.13889964 24 6
-0.57445157 -2.6479933 -0.047296021 13 7
-0.57873142 -2.6498582 -0.7267639 18 0
-0.56708086 -2.5943413 0.046353593 29 8
-0.57639438 -2.6347454 -0.62266451 18 1
-0.5849297 -2.6715279 -0.53159386 18 2
-0.57382226 -2.616426 -0.42425033 21 3
-0.5750069 -2.6174595 -0.32904723 25 4
-0.56645513 -2.5763872 -0.23078841 43 5
-0.56705338 -2.5769622 0.51289463 81 13
-0.5605796 -2.5454257 -0.13659686 92 6
-0.5788545 -2.6262245 0.62086493 96 14
-0.56818372 -2.5756731 -0.046039447 22 7
-0.56350154 -2.5523307 0.70036435 62 15
-0.56789058 -2.5552568 0.045690399 54 8
-0.57329732 -2.5753398 0.13827161 96 9
-0.57191455 -2.5670164 0.23009115 63 10
-0.57287437 -2.5671027 0.32295379 84 11
-0.58604455 -2.6218126 0.42550179 99 12
-0.57197988 -2.5567944 -0.2292196 62 5
-0.57475942 -2.5692194 0.51174974 97 13
-0.57295209 -2.5590456 -0.13743424 65 6
-0.58205289 -2.5975657 0.61456627 64 14
-0.56710666 -2.5287957 -0.045236636 64 7
-0.57409948 -2.5578883 0.70243496 68 15
-0.58320457 -2.5815809 -0.70916426 82 0
-0.5838567 -2.5844676 0.046248876 90 8
-0.58403057 -2.5831382 -0.611417 97 1
-0.58184272 -2.5713751 0.13816693 95 9
-0.58660406 -2.5882199 0.23218289 100 10
-0.5837909 -2.573724 -0.41799295 99 3
-0.58490562 -2.5786386 0.32465994 86 11
-0.58184046 -2.56305 -0.32271007 75 4
-0.59125382 -2.6024144 0.42268598 95 12
-0.58487684 -2.572268 -0.23078841 83 5
-0.58504349 -2.570924 0.51251298 99 13
-0.58055359 -2.5491385 -0.13701554 90 6
-0.59243536 -2.599215 0.61546606 63 14
-0.57992965 -2.5443482 -0.045550782 56 7
-0.58560288 -2.5671692 0.70554072 90 15
-0.5922128 -2.5795293 -0.70916426 102 0
-0.59198201 -2.5764637 0.046144161 85 8
-0.59567791 -2.590476 -0.61366647 100 1
-0.59260541 -2.5771143 0.13858563 96 9
-0.60145056 -2.6134918 -0.52129018 97 2
-0.59250498 -2.5725658 0.23096271 88 10
-0.59188402 -2.5678208 -0.41736722 100 3
-0.59613782 -2.5842149 0.32563493 86 11
-0.59524542 -2.5803463 -0.32514745 99 4
-0.60388935 -2.6157327 0.42518893 99 12
-0.59071243 -2.5566216 -0.22956821 100 5
-0.59401387 -2.5688663 0.51251298 100 13
-0.59079921 -2.5529342 -0.13732956 90 6
-0.60193032 -2.6010334 0.61636591 64 14
-0.59151512 -2.553997 -0.045760211 80 7
-0.59281534 -2.5575817 0.70347023 93 15
-0.59813225 -2.5662627 -0.70605838 93 0
-0.59961426 -2.5705914 0.046074353 85 8
-0.60426503 -2.5884864 -0.61366647 100 1
-0.60114825 -2.575135 0.13858563 95 9
-0.61100692 -2.6153061 -0.52205342 94 2
-0.60103244 -2.5705872 0.23096271 82 10
-0.59949583 -2.5619967 -0.41674146 100 3
-0.60560948 -2.5860894 0.3261224 101 11
-0.60425162 -2.580291 -0.32539117 95 4
-0.61255991 -2.6137156 0.42518893 99 12
-0.60100722 -2.5624077 -0.23026547 99 5
-0.60073483 -2.5592372 0.51098651 99 13
-0.60017574 -2.5548496 -0.1375389 85 6
-0.61055273 -2.5990229 0.61636591 63 14
-0.59769279 -2.5422885 -0.045585688 82 7
-0.60306323 -2.5631237 0.70554072 93 15
-0.60930765 -2.5755448 -0.70916426 93 0
-0.60813546 -2.568589 0.046074353 85 8
-0.61104774 -2.5788836 -0.61186683 100 1
-0.61013323 -2.5730209 0.13858563 95 9
-0.62148833 -2.6209071 -0.5235799 97 2
-0.61231387 -2.5802109 0.23200859 82 10
-0.60798854 -2.5599947 -0.41674146 100 3
-0.61326367 -2.5802042 0.32563493 101 11
-0.61417329 -2.5820284 -0.32587865 92 4
-0.62442482 -2.6230912 0.42706612 99 12
-0.60857844 -2.5565238 -0.22991684 96 5
-0.61012805 -2.5610507 0.51174974 99 13
-0.60771769 -2.54896 -0.13732956 87 6
-0.6205256 -2.600667 0.6172657 61 14
-0.60656345 -2.5401866 -0.045585688 84 7
-0.6120066 -2.561003 0.70554072 90 15
-0.61919659 -2.5771592 -0.71019953 95 0
-0.61803281 -2.570339 0.046144161 85 8
-0.62004638 -2.5767348 -0.61186683 100 1
-0.61911112 -2.5708754 0.13858563 95 9
-0.63063329 -2.6187215 -0.5235799 95 2
-0.62131685 -2.5780578 0.23200859 85 10
-0.61877328 -2.5655382 -0.41799295 100 3
-0.62226659 -2.5780478 0.32563493 101 11
-0.620386 -2.5682914 -0.32441622 95 4
-0.63450545 -2.6247363 0.42769188 99 12
-0.6221801 -2.5737503 -0.23165996 99 5
-0.61998737 -2.5627215 0.51251298 100 13
-0.6166119 -2.546823 -0.13732956 85 6
-0.62868184 -2.5946972 0.61636591 63 14
-0.61684036 -2.5438838 -0.045690399 87 7
-0.62185359 -2.5626059 0.70657599 90 15
-0.62910491 -2.5787356 -0.71123475 95 0
-0.63032126 -2.5817645 0.046388499 90 8
-0.63088697 -2.5821271 -0.61366647 100 1
-0.62808144 -2.5686986 0.13858563 96 9
-0.63836056 -2.6087644 -0.52205342 94 2
-0.63125932 -2.5797439 0.2323572 85 10
-0.62772471 -2.5633628 -0.41799295 100 3
-0.63220692 -2.579716 0.3261224 86 11
-0.62934732 -2.5661101 -0.32441622 95 4
-0.6380136 -2.599484 0.42393744 95 12
-0.62970823 -2.5637131 -0.23096271 100 5
-0.63031334 -2.564245 0.51327622 99 13
-0.62689656 -2.5484245 -0.1375389 85 6
-0.63866657 -2.5962713 0.6172657 61 14
-0.62332612 -2.5320065 -0.045515876 82 7
-0.63079476 -2.5604196 0.70657599 90 15
-0.63576347 -2.5651617 -0.70812893 95 0
-0.64074254 -2.5833187 0.046458308 89 8
-0.64222455 -2.5873628 -0.61546606 100 1
-0.63941765 -2.5741327 0.13900432 95 9
-0.64886522 -2.610218 -0.52281672 95 2
-0.63782638 -2.5658116 0.23131134 85 10
-0.63806981 -2.5648787 -0.41861868 100 3
-0.6454941 -2.592792 0.32807231 101 11
-0.64066797 -2.571491 -0.32539117 95 4
-0.6475367 -2.5971279 0.42393744 95 12
-0.6333124 -2.5381906 -0.22887097 96 5
-0.64161015 -2.5695369 0.51480269 99 13
-0.63720095 -2.5499854 -0.13774826 85 6
-0.64912271 -2.5976944 0.61816549 63 14
-0.63357288 -2.5335851 -0.045585688 82 7
-0.63829905 -2.5505943 0.70450544 90 15
-0.64610434 -2.5665612 -0.70916426 93 0
-0.64580965 -2.5635009 0.046144161 85 8
-0.65265632 -2.5887709 -0.61636591 99 1
-0.65132874 -2.5835052 0.13963234 95 9
-0.66085398 -2.6193585 -0.52510637 95 2
-0.64917701 -2.5711839 0.23200859 88 10
-0.6464985 -2.5586925 -0.41799295 100 3
-0.65401959 -2.5865598 0.32758483 101 11
-0.65106261 -2.5729744 -0.32587865 95 4
-0.66241342 -2.6178324 0.42769188 99 12
-0.64803755 -2.5591414 -0.23096271 99 5
-0.64864653 -2.559669 0.51327622 99 13
-0.64708018 -2.5516176 -0.1379576 85 6
-0.65863937 -2.5952978 0.61816549 64 14
-0.64339638 -2.5352345 -0.045655496 82 7
-0.64814949 -2.5520954 0.70554072 90 15
-0.65697169 -2.5717773 -0.71123475 93 0
-0.65777141 -2.5749078 0.046388499 89 8
-0.65737623 -2.5714881 -0.61276668 100 1
-0.6593529 -2.5773458 0.139423 96 9
-0.66901982 -2.6132319 -0.52434313 94 2
-0.66012609 -2.5766222 0.23270583 85 10
-0.65497965 -2.5565345 -0.41799295 100 3
-0.65963542 -2.5728393 0.3261224 101 11
-0.65959138 -2.5708013 -0.32587865 95 4
-0.67154706 -2.615504 0.42769188 95 12
-0.65795809 -2.5607231 -0.23131134 99 5
-0.65713096 -2.5575039 0.51327622 100 13
-0.65255392 -2.5378516 -0.13732956 87 6
-0.66724217 -2.5930994 0.61816549 63 14
-0.65573245 -2.5465288 -0.045899831 87 7
-0.65801817 -2.5535588 0.70657599 90 15
-0.66549653 -2.5695844 -0.71123475 95 0
-0.66775924 -2.5764675 0.046458308 89 8
-0.66732693 -2.5729504 -0.61366647 99 1
-0.66633821 -2.5672958 0.13900432 96 9
-0.67768139 -2.6109993 -0.52434313 94 2
-0.6686669 -2.5744188 0.23270583 88 10
-0.66588742 -2.5618799 -0.41924441 100 3
-0.6706112 -2.5782056 0.32709733 101 11
-0.66856092 -2.5684831 -0.32587865 92 4
-0.67967695 -2.6093206 0.42706612 95 12
-0.66945952 -2.5700955 -0.2323572 99 5
-0.66704518 -2.5589941 0.51403946 99 13
-0.66342497 -2.5432887 -0.13774826 90 6
-0.67530513 -2.5869834 0.6172657 63 14
-0.66310161 -2.53842 -0.045795113 84 7
-0.66790479 -2.5549848 0.70761132 87 15
-0.67544407 -2.5709825 -0.71227002 90 0
-0.67878234 -2.5818567 0.046597924 89 8
-0.67828715 -2.5781436 -0.61546606 99 1
-0.6763131 -2.5688171 0.13921365 95 9
-0.68479234 -2.6010234 -0.52281672 95 2
-0.67967951 -2.579776 0.23340309 91 10
-0.67684054 -2.5671806 -0.4204959 100 3
-0.68061966 -2.5796881 0.32758483 86 11
-0.6775226 -2.5661337 -0.32587865 92 4
-0.68878108 -2.6069322 0.42706612 99 12
-0.67740893 -2.5638905 -0.23200859 100 5
-0.67798072 -2.5642421 0.51556593 99 13
-0.67434216 -2.5486808 -0.13816693 87 6
-0.68532884 -2.588378 0.61816549 63 14
-0.67247033 -2.538023 -0.045830019 87 7
-0.67979032 -2.5638416 0.71071708 87 15
-0.68341941 -2.5648758 -0.71123475 90 0
-0.68779057 -2.5794716 0.046597924 90 8
-0.68929213 -2.5832918 -0.6172657 99 1
-0.68688732 -2.5742793 0.13963234 96 9
-0.69589311 -2.6062045 -0.52434313 95 2
-0.68456626 -2.5619888 0.23200859 88 10
-0.68579757 -2.5648022 -0.4204959 100 3
-0.69064623 -2.5811317 0.32807231 86 11
-0.68705451 -2.5677083 -0.32636613 92 4
-0.6953786 -2.5970013 0.42581466 95 12
-0.6842919 -2.553812 -0.23131134 99 5
-0.6869272 -2.5618601 0.51556593 99 13
-0.68426985 -2.5501692 -0.13837628 92 6
-0.69491857 -2.5898554 0.61906528 63 14
-0.67725313 -2.5222602 -0.045585688 82 7
-0.68628347 -2.5541105 0.7086466 90 15
-0.69192117 -2.5625954 -0.71123475 95 0
-0.69529724 -2.5733156 0.046528116 89 8
-0.69887221 -2.5847542 -0.61816549 99 1
-0.69542027 -2.5719872 0.13963234 96 9
-0.70555735 -2.6076725 -0.52510637 94 2
-0.6951409 -2.5673969 0.23270583 85 10
-0.69119924 -2.551074 -0.41861868 100 3
-0.70231873 -2.5903227 0.32953474 101 11
-0.69764352 -2.5730793 -0.32734108 88 4
-0.71019393 -2.6175582 0.42956907 99 12
-0.69380075 -2.5553746 -0.23165996 99 5
-0.69336003 -2.55199 0.51403946 99 13
-0.69167495 -2.5440316 -0.13816693 87 6
-0.70452571 -2.5912976 0.61996508 70 14
-0.68876338 -2.5315776 -0.045795113 84 7
-0.69474894 -2.5518205 0.7086466 87 15
