# .PCD v0.7 - Point Cloud Data file format
VERSION 0.7
FIELDS x y z intensity ring
SIZE 4 4 4 4 2
TYPE F F F F U
COUNT 1 1 1 1 1
WIDTH 1243
HEIGHT 1
VIEWPOINT 0 0 0 1 0 0 0
POINTS 1243
DATA ascii
2.397608 -26.396288 3.2543991 66 11
1.1364589 -12.536062 -1.5455471 8 4
2.4172864 -26.716484 4.2487607 59 12
1.9210402 -21.23184 -1.8651329 11 5
2.3709905 -26.307121 -1.3842862 21 6
2.3850327 -26.514687 6.1461124 17 14
2.3623648 -26.31415 -0.46116239 10 7
2.3701878 -26.453127 7.1164889 19 15
0.37241247 -4.2143326 -1.1336274 3 0
2.3259461 -26.373604 0.46213973 33 8
0.43518147 -4.9443269 -1.1459007 2 1
2.3206162 -26.365749 1.3871124 48 9
0.54526675 -6.2074676 -1.2112557 6 2
2.3130853 -26.385632 2.3172967 42 10
0.73153138 -8.3614359 -1.3293802 7 3
2.3047616 -26.396585 3.2534242 66 11
1.0940727 -12.555775 -1.547497 8 4
2.323879 -26.66925 4.2400002 59 12
1.8462243 -21.230474 -1.8644356 11 5
2.2775986 -26.297331 -1.3833442 25 6
2.2911217 -26.50732 6.1425138 13 14
2.2740567 -26.309883 -0.46095297 12 7
2.2817876 -26.45314 7.114418 19 15
0.35900599 -4.2310061 -1.1377686 3 0
2.2381361 -26.377184 0.46206993 33 8
0.41845465 -4.9418592 -1.1450008 2 1
2.226886 -26.353786 1.3860656 52 9
0.52458489 -6.2210703 -1.2135452 6 2
2.2196343 -26.377661 2.3159022 42 10
0.70446312 -8.3716898 -1.3306317 7 3
2.216217 -26.392218 3.2519619 66 11
1.0540874 -12.579115 -1.5499344 11 4
2.2261586 -26.62208 4.2312398 63 12
1.7724384 -21.240763 -1.8647844 11 5
2.1888883 -26.286825 -1.3824021 21 6
2.1999793 -26.475931 6.1335154 17 14
2.1828678 -26.325636 -0.46109259 10 7
2.1895971 -26.46287 7.1149359 19 15
0.34528771 -4.2360239 -1.1388038 3 0
2.1441059 -26.36092 0.46165106 33 8
0.39993989 -4.9277511 -1.1414016 2 1
2.1326261 -26.33353 1.3846002 52 9
0.50426966 -6.2266898 -1.2143085 6 2
2.1311867 -26.372963 2.3148565 42 10
0.67507619 -8.3721294 -1.3303189 6 3
2.1221666 -26.376049 3.249037 66 11
1.0089005 -12.566888 -1.5479845 10 4
2.1291182 -26.578495 4.2231054 63 12
1.7034228 -21.264397 -1.866353 7 5
2.144448 -26.828688 5.2316012 9 13
2.0958457 -26.278378 -1.3815647 21 6
2.1056948 -26.460135 6.1281166 13 14
2.0900102 -26.321131 -0.46088314 10 7
2.0981224 -26.481907 7.1180415 19 15
0.33019856 -4.2333517 -1.1377686 3 0
2.051765 -26.364256 0.46158126 30 8
0.38303858 -4.9330025 -1.1423014 2 1
2.0406911 -26.340815 1.3846002 48 9
0.48222792 -6.2244968 -1.2135452 6 2
2.0381896 -26.368322 2.3138106 42 10
0.64584863 -8.3744345 -1.3303189 6 3
2.0300832 -26.383295 3.249037 66 11
0.96563512 -12.578251 -1.5489595 11 4
2.0250165 -26.438044 4.1996403 40 12
1.6284269 -21.260281 -1.8654815 11 5
2.0042555 -26.287525 -1.3816694 18 6
2.0124314 -26.455667 6.1254172 17 14
1.9947896 -26.284399 -0.46011522 10 7
2.0027559 -26.450542 7.1076889 19 15
0.31513226 -4.2306256 -1.1367333 3 0
1.9583895 -26.35331 0.46126708 33 8
0.36783442 -4.9615173 -1.1486001 2 1
1.9478474 -26.335827 1.3839722 52 9
0.45933878 -6.2104797 -1.2104924 6 2
1.9443778 -26.351433 2.3117189 45 10
0.61791641 -8.3943691 -1.3331347 7 3
1.9368151 -26.37438 3.247087 72 11
0.92143404 -12.577585 -1.5484719 9 4
1.9301226 -26.409489 4.1940084 40 12
1.5517327 -21.232054 -1.8625182 7 5
1.9121953 -26.290379 -1.3814601 18 6
1.9203528 -26.466417 6.126317 13 14
1.9021609 -26.279236 -0.4599058 10 7
1.9081905 -26.426544 7.0994067 19 15
0.2992689 -4.2162838 -1.1325922 3 0
1.86526 -26.344028 0.46098787 33 8
0.34886497 -4.9394441 -1.1432012 2 1
1.8556247 -26.338478 1.3837628 52 9
0.43931291 -6.2355456 -1.2150718 6 2
1.852102 -26.354084 2.3113701 42 10
0.58681571 -8.3708572 -1.3290673 6 3
1.843908 -26.369101 3.2456248 66 11
0.87780035 -12.584685 -1.5489595 9 4
1.8362818 -26.39242 4.1902542 50 12
1.4776115 -21.237341 -1.8625182 7 5
1.8188918 -26.274973 -1.3803086 21 6
1.8276901 -26.469072 6.1254172 17 14
1.8098706 -26.277737 -0.45976621 10 7
1.8161938 -26.436899 7.1004419 19 15
0.28532967 -4.2288675 -1.135698 3 0
1.7716757 -26.326435 0.46056902 30 8
0.33266547 -4.9561868 -1.1468004 2 1
1.7618065 -26.316896 1.3822974 52 9
0.41754395 -6.2370415 -1.2150718 6 2
1.7590352 -26.344486 2.3099759 42 10
0.55733067 -8.3689127 -1.3284416 6 3
1.7500089 -26.347645 3.2422123 66 11
0.83334106 -12.57975 -1.5479845 8 4
1.7440127 -26.396694 4.1899409 54 12
1.4016308 -21.214537 -1.8600779 7 5
1.7240231 -26.233334 -1.3777965 43 6
1.7334964 -26.448069 6.1191187 17 14
1.7176105 -26.275911 -0.45962656 20 7
1.7235262 -26.437294 7.0988889 19 15
0.27142957 -4.2433338 -1.1393216 4 0
0.31560984 -4.9612079 -1.1477003 2 1
1.6694294 -26.314913 1.3818787 52 9
0.39676502 -6.2541351 -1.2181247 6 2
1.6668159 -26.346489 2.3096273 45 10
0.52861059 -8.3786926 -1.3296931 6 3
1.6577777 -26.34963 3.2417247 66 11
0.7874369 -12.550882 -1.5440848 10 4
1.6513664 -26.394737 4.1886897 57 12
1.329311 -21.247141 -1.8625182 7 5
1.6321956 -26.235203 -1.3775871 43 6
1.6404432 -26.442286 6.1164188 17 14
1.6255089 -26.275761 -0.45952189 25 7
1.6309906 -26.439293 7.0978537 19 15
0.25579965 -4.2307563 -1.135698 3 0
1.5860374 -26.308222 0.46004543 67 8
0.29735512 -4.9467173 -1.1441011 2 1
1.5811969 -26.304354 1.3810413 48 9
0.37352186 -6.2319651 -1.2135452 6 2
1.57436 -26.344191 2.3089299 42 10
0.50018352 -8.39429 -1.3318831 7 3
1.5653217 -26.34733 3.2407498 66 11
0.74103701 -12.509959 -1.5387224 9 4
1.56266 -26.380348 4.1855607 57 12
1.2525541 -21.207891 -1.8586832 7 5
1.5399014 -26.228779 -1.3769592 43 6
1.5474484 -26.436178 6.1137199 13 14
1.5367295 -26.253057 -0.45903322 25 7
1.5429702 -26.43877 7.0963011 19 15
0.24059045 -4.2239089 -1.1336274 3 0
1.4990139 -26.317327 0.46011522 67 8
0.282938 -4.982697 -1.1521993 2 1
1.4891446 -26.305725 1.380832 46 9
0.35287201 -6.2528329 -1.2173615 6 2
1.4808277 -26.321676 2.3064895 45 10
0.47278783 -8.4037924 -1.3331347 7 3
1.4777189 -26.348413 3.2402623 66 11
0.70043588 -12.528203 -1.5406723 10 4
1.469689 -26.369865 4.1830583 60 12
1.1777403 -21.19821 -1.8574631 11 5
1.4529141 -26.23374 -1.3769592 43 6
1.4593469 -26.433384 6.1119204 13 14
1.4441999 -26.242289 -0.45875397 25 7
1.4497192 -26.426636 7.0916424 19 15
0.22699581 -4.2323995 -1.135698 3 0
1.4054346 -26.290453 0.45955676 61 8
0.26471436 -4.9680867 -1.1486001 2 1
1.4014775 -26.302544 1.3804133 46 9
0.33234292 -6.2578888 -1.2181247 6 2
1.3933221 -26.322462 2.3061409 42 10
0.44324285 -8.4014454 -1.3325089 7 3
1.3849021 -26.337549 3.2383125 64 11
0.6569075 -12.534537 -1.5411599 9 4
1.3820275 -26.370647 4.1824327 60 12
1.1054677 -21.164194 -1.8541511 7 5
1.360921 -26.230675 -1.3765405 43 6
1.3674668 -26.446098 6.1137199 17 14
1.3573749 -26.250927 -0.45882377 25 7
1.3617812 -26.425508 7.0900893 19 15
0.21222098 -4.2331662 -1.135698 3 0
1.3182436 -26.294968 0.45955676 65 8
0.24765457 -4.9572592 -1.1459007 3 1
1.3094535 -26.303286 1.380204 46 9
0.31069189 -6.2629328 -1.2188879 6 2
1.3012367 -26.323187 2.3057923 42 10
0.41518483 -8.3989229 -1.3318831 7 3
1.2967738 -26.326138 3.2363627 64 11
0.61533886 -12.536648 -1.5411599 11 4
1.2899708 -26.375311 4.1824327 64 12
1.031969 -21.175886 -1.8548485 7 5
1.271991 -26.195145 -1.374447 43 6
1.2799515 -26.454382 6.1146197 13 14
1.264966 -26.239527 -0.45854455 25 7
1.2689738 -26.418524 7.0869837 19 15
0.1985433 -4.2415657 -1.1377686 3 0
1.225703 -26.28343 0.45927754 65 8
0.23016796 -4.9541998 -1.1450008 2 1
1.2168934 -26.291733 1.3793666 46 9
0.29001209 -6.2658896 -1.2192695 7 2
1.2135707 -26.319397 2.3050952 42 10
0.38677081 -8.4200544 -1.3350118 7 3
1.20451 -26.322569 3.2353876 64 11
0.57139289 -12.534752 -1.5406723 9 4
1.1975336 -26.371759 4.181181 67 12
0.95633632 -21.141544 -1.8515366 7 5
1.1807243 -26.203415 -1.3746563 43 6
1.1856774 -26.415859 6.1047215 13 14
1.1728317 -26.231796 -0.4583351 25 7
1.1770053 -26.428581 7.0885363 19 15
0.18299577 -4.2422652 -1.1377686 3 0
1.1341209 -26.291546 0.45934734 65 8
0.21337491 -4.9666548 -1.1477003 2 1
1.1247717 -26.28784 1.378948 46 9
0.26645932 -6.253181 -1.2165983 6 2
1.1164209 -26.307743 2.3037004 42 10
0.35573918 -8.4174681 -1.3343862 7 3
1.1122806 -26.318684 3.2344127 58 11
0.52830243 -12.552538 -1.5426223 9 4
1.1046469 -26.356043 4.1780524 70 12
0.88144946 -21.118874 -1.8492705 7 5
1.0845134 -26.203575 -1.374447 47 6
1.0883687 -26.408346 6.1020222 17 14
1.0805136 -26.217749 -0.45802096 22 7
1.083477 -26.401646 7.0802541 19 15
0.16772768 -4.2312961 -1.1346627 3 0
1.0371218 -26.279539 0.45906809 65 8
0.19471063 -4.9557199 -1.1450008 2 1
1.0282578 -26.287794 1.3787386 46 9
0.24486081 -6.2599583 -1.2177432 7 2
1.02381 -26.291569 2.3019574 45 10
0.32643187 -8.4206333 -1.334699 6 3
1.0155067 -26.314648 3.2334378 64 11
0.48183411 -12.542488 -1.5411599 9 4
1.0077373 -26.352018 4.1768007 81 12
0.80237389 -21.078163 -1.8454357 7 5
0.992733 -26.199221 -1.3740283 43 6
0.99647582 -26.419773 6.1038218 17 14
0.98449105 -26.22353 -0.45805588 25 7
0.98590887 -26.384205 7.0745602 19 15
0.15235688 -4.235743 -1.135698 3 0
0.94495076 -26.271008 0.45885867 65 8
0.17769004 -4.9641595 -1.1468004 2 1
0.93620485 -26.283239 1.3783199 46 9
0.2220535 -6.2647371 -1.2185063 7 2
0.92701793 -26.283197 2.3009117 42 10
0.29501209 -8.4059792 -1.3321961 6 3
0.92378384 -26.321999 3.2339251 58 11
0.43804938 -12.544094 -1.5411599 11 4
0.91581655 -26.357351 4.1771135 70 12
0.72851652 -21.07287 -1.8447384 7 5
0.8961575 -26.186712 -1.3731909 43 6
0.89897233 -26.403772 6.0993233 17 14
0.89267504 -26.218813 -0.45791623 25 7
0.8940689 -26.395208 7.0766306 19 15
0.13904946 -4.2362008 -1.135698 3 0
0.85717416 -26.254009 0.45850962 65 8
0.16097413 -4.9569306 -1.1450008 2 1
0.84877932 -26.278215 1.3779012 46 9
0.20281452 -6.2791395 -1.2211776 6 2
0.84469694 -26.293945 2.3016088 42 10
0.26853999 -8.4048901 -1.3318831 7 3
0.83586031 -26.305079 3.2314878 64 11
0.39645025 -12.545477 -1.5411599 11 4
0.82778585 -26.340498 4.173985 70 12
0.66106045 -21.035225 -1.8412522 7 5
0.81338775 -26.173429 -1.3723537 43 6
0.8165015 -26.422047 6.102922 17 14
0.80541724 -26.211636 -0.45774171 22 7
0.80641526 -26.394165 7.0755954 19 15
0.12426089 -4.2366605 -1.135698 3 0
0.7654081 -26.252846 0.45843983 65 8
0.14321908 -4.9418793 -1.1414016 2 1
0.75635839 -26.257061 1.3766451 51 9
0.18106517 -6.2856965 -1.2223225 7 2
0.75239486 -26.278811 2.30004 39 10
0.23942435 -8.4136753 -1.3331347 7 3
0.74381137 -26.299898 3.2305129 58 11
0.35243246 -12.538847 -1.5401849 9 4
0.73572111 -26.339279 4.1733594 67 12
0.58834988 -21.063295 -1.8435181 11 5
0.72180247 -26.168121 -1.3719349 43 6
0.72372854 -26.405256 6.098423 17 14
0.71359247 -26.202295 -0.45753229 22 7
0.71401548 -26.387163 7.0730071 19 15
0.10947181 -4.2370687 -1.135698 3 0
0.67407405 -26.267351 0.45864925 65 8
0.12656291 -4.9657259 -1.1468004 2 1
0.66480297 -26.263535 1.3768544 46 9
0.15892474 -6.27844 -1.220796 7 2
0.6604591 -26.273312 2.2993429 39 10
0.2104478 -8.4302568 -1.3356376 7 3
0.65190393 -26.298367 3.2300253 64 11
0.30758664 -12.496342 -1.5348227 11 4
0.64319867 -26.317989 4.1696048 70 12
0.51076061 -21.049377 -1.8421237 11 5
0.63064605 -26.178471 -1.3723537 43 6
0.63136864 -26.39983 6.0966234 17 14
0.62193131 -26.196629 -0.45739269 22 7
0.62194753 -26.391426 7.073525 19 15
0.093984194 -4.2393732 -1.1362157 4 0
0.58193582 -26.249554 0.4583002 61 8
0.10948609 -4.9778271 -1.1494999 2 1
0.57311821 -26.265694 1.3768544 51 9
0.13616687 -6.2907572 -1.2230858 7 2
0.56403255 -26.269579 2.2988198 42 10
0.17954782 -8.4309721 -1.3356376 7 3
0.56001627 -26.296513 3.229538 64 11
0.26400596 -12.499324 -1.5350664 14 4
0.55133021 -26.320074 4.1696048 67 12
0.43732223 -21.053022 -1.842298 7 5
0.53445089 -26.168623 -1.3717256 43 6
0.53413028 -26.378586 6.0912247 17 14
0.53016281 -26.182646 -0.45711344 22 7
0.52912498 -26.358669 7.0642071 19 15
0.079149254 -4.2377434 -1.135698 3 0
0.48535213 -26.231516 0.45795116 61 8
0.091026358 -4.9665046 -1.1468004 2 1
0.48121318 -26.255554 1.3762264 51 9
0.11406447 -6.2833424 -1.2215593 7 2
0.47225571 -26.267403 2.2984712 42 10
0.14990693 -8.4196968 -1.3337604 7 3
0.4637036 -26.302357 3.2300253 64 11
0.22096956 -12.533911 -1.53921 10 4
0.45944878 -26.321838 4.1696048 67 12
0.36335078 -21.026531 -1.8398577 7 5
0.44296294 -26.162342 -1.3713069 39 6
0.44704768 -26.403595 6.0966234 17 14
0.43883133 -26.188334 -0.45718324 22 7
0.43724024 -26.368084 7.066278 19 15
0.06503696 -4.2341194 -1.1346627 3 0
0.39848307 -26.240978 0.45809075 61 8
0.074380651 -4.9550881 -1.1441011 3 1
0.39408299 -26.25301 1.3760171 51 9
0.093227297 -6.2836862 -1.2215593 7 2
0.38514936 -26.268826 2.2984712 42 10
0.12192784 -8.4161978 -1.3331347 7 3
0.37619421 -26.283901 3.2275879 64 11
0.17911981 -12.514726 -1.5367726 11 4
0.37221783 -26.327166 4.1702304 64 12
0.29325986 -21.001724 -1.8375916 11 5
0.35614774 -26.159674 -1.3710976 36 6
0.35916841 -26.381548 6.0912247 17 14
0.35193366 -26.185648 -0.45711344 22 7
0.34943834 -26.342344 7.059031 19 15
0.051274765 -4.2574921 -1.1408744 3 0
0.31122431 -26.222158 0.45774171 58 8
0.058131278 -4.9708962 -1.1477003 3 1
0.30230483 -26.242243 1.375389 46 9
0.072435066 -6.2878866 -1.2223225 7 2
0.29799047 -26.265972 2.2981226 42 10
0.094150111 -8.4284067 -1.3350118 7 3
0.28899005 -26.281034 3.2271006 64 11
0.1353479 -12.507335 -1.5357976 12 4
0.28014764 -26.312504 4.1677275 64 12
0.22395259 -21.034456 -1.8403807 11 5
0.26927587 -26.148727 -1.3704695 39 6
0.26692203 -26.367052 6.0876255 17 14
0.26044309 -26.178719 -0.45697382 22 7
0.25775102 -26.370449 7.066278 19 15
0.036478996 -4.2653728 -1.1429449 3 0
0.21972591 -26.227085 0.4578115 65 8
0.040843055 -4.9788637 -1.1494999 3 1
0.21066453 -26.239143 1.3751796 46 9
0.05035878 -6.2723956 -1.2192695 7 2
0.20630568 -26.266855 2.2981226 42 10
0.064760007 -8.4326344 -1.3356376 7 3
0.19721672 -26.277914 3.226613 64 11
0.091573067 -12.491851 -1.5338477 9 4
0.18824403 -26.30542 4.1664758 60 12
0.15035811 -21.011202 -1.8382889 11 5
0.17794301 -26.141518 -1.3700508 39 6
0.17493318 -26.37562 6.0894251 17 14
0.16897273 -26.16547 -0.4567295 25 7
0.1656501 -26.363459 7.0642071 19 15
0.021472391 -4.2422919 -1.1367333 3 0
0.12813511 -26.219694 0.45767191 61 8
0.02342646 -4.9711809 -1.1477003 3 1
0.11907395 -26.239719 1.3751796 46 9
0.028517757 -6.2843127 -1.2215593 7 2
0.11454572 -26.251474 2.2967281 42 10
0.035307448 -8.4288597 -1.3350118 7 3
0.10549089 -26.278442 3.226613 64 11
0.047981218 -12.496063 -1.5343351 9 4
0.096415959 -26.305916 4.1664758 60 12
0.07687258 -20.973743 -1.8349769 7 5
0.086703517 -26.145975 -1.3702601 39 6
0.082887761 -26.383863 6.0912247 13 14
0.07763955 -26.165899 -0.4567295 25 7
0.07361193 -26.360014 7.0631719 19 15
0.006670353 -4.2462049 -1.1377686 3 0
0.03659863 -26.211985 0.45753229 61 8
0.0060735182 -4.9712324 -1.1477003 3 1
0.027473535 -26.231989 1.3747611 51 9
0.0065920912 -6.2941904 -1.2234674 8 2
0.022902595 -26.243746 2.296031 42 10
0.0058916821 -8.4388084 -1.3365762 10 3
0.013753335 -26.270708 3.2256379 64 11
0.0043626614 -12.496155 -1.5343351 8 4
0.0045909192 -26.294241 4.1645989 57 12
0.0036613005 -20.9699 -1.8346283 7 5
-0.0045604128 -26.142124 -1.3700508 36 6
-0.0091976831 -26.356709 6.0849261 17 14
-0.013701858 -26.168011 -0.45676437 22 7
-0.018408271 -26.36784 7.0652428 19 15
-0.008174587 -4.2577934 -1.1408744 3 0
-0.054870967 -26.199953 0.45732284 61 8
-0.011252376 -4.9595308 -1.1450008 3 1
-0.06407769 -26.223934 1.3743424 51 9
-0.01536051 -6.2863221 -1.2219409 8 2
-0.068706043 -26.243666 2.296031 45 10
-0.023553485 -8.4348259 -1.3359504 10 3
-0.077887341 -26.250746 3.2232008 70 11
-0.039207548 -12.480213 -1.5323852 10 4
-0.087206975 -26.298046 4.1652246 57 12
-0.073211521 -20.973757 -1.8349769 7 5
-0.018413857 -5.2752323 1.0254076 0 13
-0.095755592 -26.125971 -1.3692133 39 6
-0.10120358 -26.356516 6.0849261 17 14
-0.11031721 -26.336702 7.0569601 19 15
-0.023758115 -4.2538714 -1.1398392 3 0
-0.14639328 -26.211599 0.45753229 61 8
-0.028519545 -4.9516668 -1.1432012 3 1
-0.155495 -26.203579 1.3732957 51 9
-0.038389046 -6.2842603 -1.2215593 7 2
-0.16494395 -26.251205 2.2967281 42 10
-0.054468654 -8.4346819 -1.3359504 10 3
-0.1695423 -26.254284 3.2236881 64 11
-0.082587413 -12.45221 -1.5289729 10 4
-0.14634028 -20.96142 -1.8339312 10 5
-0.037889007 -5.2947612 1.0292237 0 13
-0.19154115 -26.129438 -1.3694227 39 6
-0.19783095 -26.359867 6.0858259 17 14
-0.045787282 -6.1008992 -0.10649458 20 7
-0.20221986 -26.332294 7.0559249 19 15
-0.038501672 -4.2421718 -1.1367333 3 0
-0.24238907 -26.202888 0.45739269 58 8
-0.046889193 -4.9749131 -1.1486001 3 1
-0.24721017 -26.228838 1.3746563 38 9
-0.060362093 -6.2880139 -1.2223225 7 2
-0.256477 -26.240509 2.2958565 24 10
-0.084010363 -8.4443178 -1.3375148 8 3
-0.26582867 -26.259441 3.2244194 47 11
-0.12810259 -12.439915 -1.5275104 9 4
-0.05428952 -5.2720013 0.8350473 0 12
-0.21879961 -20.893044 -1.8280045 3 5
-0.056371089 -5.2945971 1.0292237 0 13
-0.28311375 -26.162561 -1.3712021 3 6
-0.2898007 -26.355118 6.0849261 17 14
-0.06679745 -6.0747075 -0.10604082 28 7
-0.2940715 -26.325632 7.0543718 19 15
-0.053163845 -4.2304211 -1.1336274 3 0
-0.063286029 -4.9669352 -1.1468004 5 1
-0.082182676 -6.2779498 -1.2204144 8 2
-0.11167096 -8.4183149 -1.3334475 2 3
-0.36272806 -26.305569 4.1667891 54 12
-0.084816888 -6.0742035 -0.53147572 1 5
-0.3724353 -26.672138 5.1850438 4 13
-0.37697372 -26.338423 6.0813265 17 14
-0.088174976 -6.0864348 -0.10625025 22 7
-0.38576576 -26.310923 7.0507483 19 15
-0.067222476 -4.2321534 -1.1341451 4 0
-0.08056096 -4.9627876 -1.1459007 3 1
-0.10335442 -6.2992353 -1.2246122 7 2
-0.101413 -6.1157951 0.53513628 11 10
-0.10163838 -6.0655303 -0.96082056 8 3
-0.1035717 -6.1171784 0.7512027 5 11
-0.10375655 -6.0655551 -0.74486554 10 4
-0.4498212 -26.29632 4.1655374 67 12
-0.091654614 -5.250906 1.0208282 0 13
-0.10677792 -6.056746 -0.31746995 100 6
-0.46932361 -26.360329 6.0867252 17 14
-0.47308433 -26.313364 7.051784 19 15
-0.08233247 -4.2492762 -1.1388038 3 0
-0.11846118 -6.1139216 0.10673892 29 8
-0.096941128 -4.9585962 -1.1450008 3 1
-0.12056571 -6.112421 0.32040074 7 9
-0.12475727 -6.2693934 -1.2188879 5 2
-0.12272068 -6.1134119 0.53496194 2 10
-0.12198995 -6.0770106 -0.9626978 3 3
-0.12409706 -6.1287093 0.7526651 2 11
-0.12451884 -6.0969324 -0.74876529 6 4
-0.54169184 -26.29854 4.1661634 67 12
-0.12616009 -6.0734859 -0.53147572 6 5
-0.10931095 -5.2623506 1.0231179 0 13
-0.12698793 -6.0623488 -0.31778398 10 6
-0.55640686 -26.343042 6.0831265 17 14
-0.12785716 -6.0037246 -0.10481916 0 7
-0.56509566 -26.319279 7.0538545 19 15
-0.096466117 -4.2509117 -1.1393216 4 0
-0.11415963 -4.9543314 -1.1441011 5 1
-0.26474985 -11.403275 0.59778136 2 9
-0.14445248 -6.2218399 -1.2097291 1 2
-0.26692829 -11.411278 0.99863046 2 10
-0.19788504 -8.3969707 -1.3303189 1 3
-0.27067432 -11.401143 1.4002789 2 11
-0.2714287 -11.349498 -1.3939416 3 4
-0.63358033 -26.30044 4.1667891 64 12
-0.27558225 -11.357263 -0.99392402 4 5
-0.1267276 -5.2226825 1.0154855 0 13
-0.27575406 -11.283142 -0.59150106 2 6
-0.64807081 -26.329248 6.0804267 17 14
-0.13850535 -5.5874329 -0.097558953 0 7
-0.65696436 -26.317146 7.0538545 19 15
-0.11219862 -4.2563224 -1.1408744 3 0
-0.29782984 -11.298355 0.19728202 4 8
-0.13165969 -4.9616952 -1.1459007 5 1
-0.30188707 -11.302453 0.59254777 4 9
-0.30600262 -11.308648 0.98974061 4 10
-0.22801498 -8.3724937 -1.3265644 2 3
-0.30809122 -11.312818 1.3895544 2 11
-0.30854267 -11.257201 -1.3827296 3 4
-0.72467476 -26.272396 4.1627216 47 12
-0.31223848 -11.248684 -0.98451126 4 5
-0.14663638 -5.2496581 1.0208282 0 13
-0.31430143 -11.182232 -0.58626747 2 6
-0.74478573 -26.33449 6.0822268 17 14
-0.14704052 -5.1991291 -0.090787418 19 7
-0.7490449 -26.322414 7.0559249 19 15
-0.12624884 -4.2288713 -1.1336274 3 0
-0.33647895 -11.205243 0.19567639 4 8
-0.14996146 -4.9650745 -1.1468004 3 1
-0.33997533 -11.191472 0.5867908 3 9
-0.16763 -5.518126 -1.0731099 1 2
-0.34164241 -11.18205 0.97875899 2 10
-0.25820896 -8.4032373 -1.3315703 2 3
-0.34648716 -11.212405 1.3773675 2 11
-0.34647083 -11.148851 -1.3695679 3 4
-0.17258501 -5.5224328 0.87509453 0 12
-0.3478938 -11.132022 -0.97440118 2 5
-0.16409639 -5.221642 1.0154855 0 13
-0.34998831 -11.075265 -0.58071983 1 6
-0.83670962 -26.33173 6.0822268 17 14
-0.16628696 -5.2045512 -0.090892136 37 7
-0.84452122 -26.288601 7.0476427 19 15
-0.1414599 -4.24192 -1.1372509 4 0
-0.37230653 -11.106069 0.19396605 2 8
-0.16768642 -4.9762068 -1.1494999 3 1
-0.37822637 -11.166264 0.58553475 1 9
-0.18582696 -5.4861135 -1.067004 1 2
-0.2868658 -8.3825426 -1.3284416 1 3
-0.38490438 -11.133687 -1.3678616 0 4
-0.18633731 -5.3094406 -0.2784273 1 6
-0.92806739 -26.313068 6.0786276 17 14
-0.1847367 -5.2119327 -0.091031753 33 7
-0.93635303 -26.287422 7.0481601 19 15
-0.15662186 -4.2510533 -1.1398392 3 0
-0.19477284 -5.2615943 0.091904372 1 8
-0.18462056 -4.9639063 -1.1468004 3 1
-0.19448765 -5.2292037 0.27424043 1 9
-0.19999097 -5.3520231 -1.0410539 1 2
-0.20069335 -5.3457999 0.46802634 1 10
-0.20061474 -5.2944121 0.65053862 0 11
-0.19993824 -5.2765589 -0.64834493 0 4
-0.20115349 -5.2842565 0.83755022 0 12
-0.19894274 -5.2023115 -0.4554759 2 5
-0.20054631 -5.2203693 1.0154855 0 13
-0.2001716 -5.1870155 -0.27204233 2 6
-1.015471 -26.31374 6.0795269 17 14
-0.20217422 -5.2152882 -0.091101564 6 7
-1.0236683 -26.288033 7.0491958 19 15
-0.17064016 -4.2485805 -1.1393216 4 0
-0.21060804 -5.2209582 0.091206275 3 8
-0.20139621 -4.971056 -1.1486001 3 1
-0.21166573 -5.2245383 0.27403107 3 9
-0.21614106 -5.3120975 -1.0334216 1 2
-0.21435173 -5.2455688 0.45931077 1 10
-0.21367204 -5.2066612 -0.82534832 1 3
-0.21653588 -5.2540493 0.64566386 0 11
-0.21522802 -5.2223153 -0.64176404 2 4
-0.21802169 -5.2677708 0.8350473 0 12
-0.21702071 -5.22153 -0.45721903 3 5
-0.21949421 -5.2589068 1.0231179 0 13
-0.21753873 -5.1903143 -0.27225167 2 6
-1.1023993 -26.302441 6.0777278 12 14
-0.21913084 -5.2065973 -0.090961948 1 7
-1.1118169 -26.307657 7.0554075 19 15
-0.18456028 -4.2441306 -1.1382862 4 0
-0.22931603 -5.2521963 0.091764756 3 8
-0.21822068 -4.978148 -1.1503997 3 1
-0.22942668 -5.2337847 0.27455446 2 9
-0.23323771 -5.299583 -1.0311319 1 2
-0.23086621 -5.224925 0.45756766 1 10
-0.23531412 -5.3045964 -0.8409918 1 3
-0.23236696 -5.2176061 0.64127654 1 11
-0.23254362 -5.2215729 -0.64176404 2 4
-0.23584218 -5.2749128 0.83629876 0 12
-0.23451363 -5.2247624 -0.45756766 3 5
-0.23516423 -5.2189245 1.0154855 1 13
-0.23492932 -5.1935549 -0.27246103 2 6
-0.2361234 -5.1998491 -0.09085723 1 7
-0.23629136 -5.1835709 1.390376 1 15
-0.19845283 -4.2396359 -1.1372509 4 0
-0.24654353 -5.2474117 0.091694944 3 8
-0.23491138 -4.9812899 -1.1512995 3 1
-0.24753413 -5.2489548 0.27539182 2 9
-0.25211021 -5.3262358 -1.0364745 1 2
-0.24838071 -5.2281103 0.45791626 2 10
-0.24725789 -5.1853981 -0.82221961 1 3
-0.25004831 -5.2247386 0.64225149 1 11
-0.25109214 -5.2465491 -0.64493263 1 4
-0.25181693 -5.2425318 0.83129281 0 12
-0.25030282 -5.1921144 -0.45477867 3 5
-0.25057214 -5.1788964 1.0078532 7 13
-0.24905086 -5.1289096 -0.26911151 5 6
-0.25320846 -5.2145309 1.2052878 7 14
-0.25287896 -5.1890507 -0.0906827 1 7
-0.25102532 -5.1325903 1.3769174 9 15
-0.21433944 -4.2311254 -1.1351804 4 0
-0.26323867 -5.1785245 0.090508185 10 8
-0.25264663 -4.9531045 -1.1450008 3 1
-0.26472387 -5.172123 0.27141431 7 9
-0.27235955 -5.3213077 -1.0357113 1 2
-0.26528487 -5.1654358 0.45251262 4 10
-0.2647267 -5.1370649 -0.8147108 1 3
-0.26723778 -5.168231 0.63542682 2 11
-0.26752263 -5.1562901 -0.63396436 3 4
-0.27183211 -5.2217517 0.82816416 0 12
-0.26764777 -5.1413727 -0.45042086 24 5
-0.26943177 -5.1582904 1.0040369 13 13
-0.27424052 -5.2154188 1.2057376 7 14
-0.27086249 -5.1340771 -0.089740276 13 7
-0.27387333 -5.1739826 1.3883054 15 15
-0.22952552 -4.2380672 -1.1372509 4 0
-0.27057061 -4.9638677 -1.1477003 5 1
-0.28190345 -5.1552129 0.27057692 10 9
-0.28428605 -5.1987839 -1.012051 2 2
-0.28320497 -5.1624885 0.45233828 6 10
-0.28320026 -5.1459713 -0.81627518 3 3
-0.28472906 -5.1573567 0.63420814 3 11
-0.28595844 -5.1632528 -0.63493931 8 4
-0.28918189 -5.2049923 0.82566124 1 12
-0.28548312 -5.1384177 -0.45024657 13 5
-0.28765398 -5.1612396 1.0048002 12 13
-0.2876437 -5.1448941 -0.27005357 33 6
-0.29266307 -5.2183213 1.2066375 7 14
-0.29095274 -5.1556368 1.3836466 12 15
-0.24465095 -4.2430258 -1.1388038 4 0
-0.29926968 -5.1745634 0.090473272 25 8
-0.28812253 -4.966784 -1.1486001 5 1
-0.29922873 -5.1582375 0.27078626 9 9
-0.30197483 -5.1899199 -1.0105245 2 2
-0.30238461 -5.1813583 0.45408139 10 10
-0.30069914 -5.137063 -0.8150236 5 3
-0.30319539 -5.1642585 0.6351831 7 11
-0.30304644 -5.1463699 -0.63298941 12 4
-0.3065564 -5.205977 0.82597405 2 12
-0.30506188 -5.165235 -0.45268691 22 5
-0.30590066 -5.1641235 1.0055635 13 13
-0.30631244 -5.1558208 -0.27068159 33 6
-0.31041253 -5.2094865 1.2048379 7 14
-0.30711058 -5.1540718 -0.090124227 23 7
-0.30873951 -5.1662135 1.3867525 12 15
-0.25898927 -4.2344337 -1.1367333 6 0
-0.30435237 -4.9619107 -1.1477003 5 1
-0.31747732 -5.161149 0.27099562 20 9
-0.31948555 -5.1790366 -1.0086164 10 2
-0.31960809 -5.1663513 0.45286122 15 10
-0.31870857 -5.1518111 -0.81752664 10 3
-0.3220394 -5.1909623 0.6385954 16 11
-0.32195988 -5.175056 -0.63664556 23 4
-0.32386589 -5.1910739 0.82378399 7 12
-0.32371163 -5.1740813 -0.4535585 43 5
-0.32375887 -5.1748366 1.0078532 14 13
-0.32340762 -5.1547771 -0.27068159 33 6
-0.32707444 -5.1987038 1.2025883 10 14
-0.32823431 -5.1882405 1.3929642 29 15
-0.27228293 -4.2219844 -1.1336274 6 0
-0.33525863 -5.1843801 0.0906827 78 8
-0.32280582 -4.9783206 -1.1517494 15 1
-0.33523273 -5.1560225 0.27078626 21 9
-0.33805943 -5.1994987 -1.0128142 11 2
-0.33725664 -5.1732163 0.4535585 21 10
-0.33694705 -5.1546092 -0.81815231 13 3
-0.33847025 -5.1640553 0.63542682 20 11
-0.3392407 -5.1620159 -0.6351831 33 4
-0.34185383 -5.1879411 0.82347113 29 12
-0.33890289 -5.143158 -0.4509438 33 5
-0.34285155 -5.1755385 -0.27183297 63 6
-0.34295243 -5.149807 -0.090089321 76 7
-0.34364 -5.146584 1.3820938 44 15
-0.28767467 -4.2306452 -1.1362157 4 0
-0.3532176 -5.1811833 0.090647802 93 8
-0.33898559 -4.9596653 -1.1477003 5 1
-0.35213578 -5.1388807 0.2699489 65 9
-0.3594147 -5.178833 0.82221961 45 12
-0.36028698 -5.1783261 1.008998 70 13
-0.35896996 -5.1464162 -0.27036759 66 6
-0.36471963 -5.2157335 1.2070874 47 14
-0.36008701 -5.1366096 -0.089879893 56 7
-0.36241558 -5.1569161 1.3851995 69 15
-0.30271578 -4.233469 -1.1372509 4 0
-0.37101531 -5.1759291 0.09057799 100 8
-0.35531849 -4.9448457 -1.1445509 5 1
-0.37279758 -5.1754699 0.27193764 60 9
-0.37420824 -5.1950536 -1.0124326 63 2
-0.3745122 -5.1866331 0.45495299 70 10
-0.37135607 -5.1304588 -0.8147108 51 3
-0.37451327 -5.1615663 0.63542682 79 11
-0.37555805 -5.1634808 -0.63567054 93 4
-0.38021871 -5.2149801 0.82816416 51 12
-0.3753801 -5.1486149 -0.45164105 89 5
-0.37764576 -5.1672468 1.00709 84 13
-0.37736946 -5.1511078 -0.27068159 97 6
-0.38192424 -5.2008247 1.203938 38 14
-0.37963054 -5.157259 -0.090263851 64 7
-0.38027239 -5.1536932 1.3846819 75 15
-0.31850374 -4.2458715 -1.1408744 3 0
-0.38952979 -5.1805849 0.0906827 100 8
-0.37257662 -4.9435754 -1.1445509 6 1
-0.38980868 -5.1601958 0.27120495 70 9
-0.39278451 -5.1995888 -1.0135775 77 2
-0.39201248 -5.1773477 0.45425573 73 10
-0.39120531 -5.1547375 -0.8187781 78 3
-0.39298007 -5.1661663 0.63615805 79 11
-0.39207074 -5.1423454 -0.63323313 93 4
-0.39857081 -5.215591 0.82847708 61 12
-0.39335001 -5.1472731 -0.45164105 91 5
-0.39568004 -5.1658969 1.00709 86 13
-0.39519513 -5.1477675 -0.27057692 93 6
-0.39917991 -5.1878014 1.2012386 42 14
-0.39762995 -5.1559029 -0.090263851 63 7
-0.39855704 -5.1561861 1.3857172 75 15
-0.33211237 -4.2293267 -1.1367333 3 0
-0.40761119 -5.179194 0.0906827 100 8
-0.39136311 -4.9616718 -1.14905 13 1
-0.4073891 -5.1648483 0.27151898 81 9
-0.41046745 -5.1923146 -1.0124326 65 2
-0.40945312 -5.1680031 0.4535585 76 10
-0.40857163 -5.1454639 -0.81752664 60 3
-0.41164041 -5.172678 0.63713294 81 11
-0.40975073 -5.1489325 -0.63420814 93 4
-0.41492203 -5.2024255 0.82659984 73 12
-0.41131508 -5.1458688 -0.45164105 91 5
-0.41433659 -5.1723123 1.0086164 86 13
-0.41348156 -5.1503382 -0.27078626 93 6
-0.41762826 -5.2019892 1.2048379 54 14
-0.41344252 -5.1386094 -0.089984603 67 7
-0.41565362 -5.1548367 1.3857172 75 15
-0.34566277 -4.2224259 -1.1351804 4 0
-0.42478335 -5.177814 0.0906827 100 8
-0.40829366 -4.9661732 -1.1503997 7 1
-0.42451432 -5.1634688 0.27151898 81 9
-0.42768368 -5.1909251 -1.0124326 65 2
-0.42626086 -5.1626453 0.45320985 76 10
-0.42595774 -5.1480184 -0.81815231 60 3
-0.42944771 -5.1791978 0.6381079 79 11
-0.42715117 -5.1515017 -0.63469559 93 4
-0.43151745 -5.1931467 0.82534832 52 12
-0.42771542 -5.1365347 -0.4509438 89 5
-0.43116 -5.166997 1.0078532 86 13
-0.43089151 -5.1529198 -0.27099562 93 6
-0.4355261 -5.2083435 1.2066375 56 14
-0.43081468 -5.1411958 -0.090054423 64 7
-0.43177503 -5.1418791 1.3826115 75 15
-0.35999063 -4.2251062 -1.1362157 4 0
-0.44161126 -5.1723919 0.090612896 100 8
-0.42392945 -4.9550834 -1.1481502 8 1
-0.44253576 -5.1619554 0.27151898 81 9
-0.44523069 -5.1933904 -1.0131959 67 2
-0.44337803 -5.1612034 0.45320985 73 10
-0.44234931 -5.1387048 -0.81690085 65 3
-0.4462792 -5.17379 0.63762045 81 11
-0.44581395 -5.1578898 -0.63567054 102 4
-0.45032364 -5.1994805 0.82659984 54 12
-0.44598734 -5.1389804 -0.45129246 89 5
-0.44795272 -5.1616268 1.00709 87 13
-0.44763094 -5.1474829 -0.27078626 93 6
-0.45404181 -5.2106743 1.2075372 51 14
-0.44945341 -5.1476288 -0.090194039 67 7
-0.45005843 -5.1441898 1.3836466 75 15
-0.3761583 -4.2314553 -1.1382862 4 0
-0.45930958 -5.1668348 0.090543084 100 8
-0.43880242 -4.9263988 -1.1418515 8 1
-0.46055117 -5.1603794 0.27151898 81 9
-0.46548659 -5.2054124 -1.0158671 70 2
-0.46264756 -5.1635132 0.4535585 73 10
-0.4608275 -5.1331139 -0.81627518 65 3
-0.46291649 -5.156383 0.63567054 81 11
-0.46381637 -5.1563025 -0.63567054 92 4
-0.4691799 -5.2057471 0.8278513 52 12
-0.46392316 -5.137392 -0.45129246 89 5
-0.46616051 -5.1521301 1.0055635 86 13
-0.4657726 -5.1378508 -0.27036759 93 6
-0.4727844 -5.2050939 1.2066375 51 14
-0.46778125 -5.150012 -0.090263851 64 7
-0.46836197 -5.1464357 1.3846819 74 15
-0.39199334 -4.2416587 -1.1413921 4 0
-0.47824398 -5.1651168 0.090543084 100 8
-0.45433563 -4.8975921 -1.135553 6 1
-0.47946191 -5.1586566 0.27151898 81 9
-0.4823817 -5.1900716 -1.0131959 67 2
-0.48140839 -5.1698012 0.45425573 73 10
-0.47947612 -5.1393418 -0.81752664 65 3
-0.48218146 -5.1586056 0.63615805 81 11
-0.48160169 -5.1427097 -0.63420814 91 4
-0.48788777 -5.2000585 0.82722551 54 12
-0.48222551 -5.1397085 -0.45164105 92 5
-0.4845089 -5.1543798 1.0063267 87 13
-0.48464069 -5.1461363 -0.27089092 97 6
-0.49021864 -5.1956511 1.2048379 56 14
-0.48590177 -5.1402993 -0.090124227 64 7
-0.48795009 -5.1523767 1.3867525 75 15
-0.40568975 -4.2287264 -1.1382862 4 0
-0.4970361 -5.1713781 0.0906827 100 8
-0.47180229 -4.8998556 -1.1364527 10 1
-0.49746558 -5.1569514 0.27151898 81 9
-0.49936399 -5.1766315 -1.0109061 65 2
-0.49868441 -5.1601572 0.4535585 76 10
-0.49779373 -5.1415691 -0.81815231 65 3
-0.50056946 -5.1608419 0.63664556 81 11
-0.49954969 -5.1409974 -0.63420814 92 4
-0.50488758 -5.1865273 0.82534832 56 12
-0.50016302 -5.1379938 -0.45164105 91 5
-0.5036422 -5.1643815 1.0086164 87 13
-0.50201803 -5.1384501 -0.27057692 93 6
-0.50873101 -5.1977873 1.2057376 56 14
-0.50345105 -5.1345916 -0.090054423 67 7
-0.50555468 -5.1467972 1.3857172 75 15
-0.41853696 -4.2080607 -1.1331098 4 0
-0.51508403 -5.1696119 0.0906827 100 8
-0.48967749 -4.9059353 -1.1382524 8 1
-0.51546443 -5.1551838 0.27151898 84 9
-0.51782215 -5.1787634 -1.0116693 62 2
-0.51550233 -5.1464901 0.45251262 79 10
-0.51573825 -5.1398001 -0.81815231 68 3
-0.51977187 -5.1709142 0.6381079 84 11
-0.51848656 -5.149097 -0.63542682 101 4
-0.52358377 -5.1906295 0.82628691 62 12
-0.5172953 -5.1282878 -0.4509438 91 5
-0.52127093 -5.1586852 1.0078532 88 13
-0.52055508 -5.1426272 -0.27089092 100 6
-0.52569276 -5.1843467 1.2030382 63 14
-0.52137059 -5.132803 -0.090054423 69 7
-0.52234405 -5.1334696 1.3826115 72 15
-0.43520194 -4.225791 -1.1382862 4 0
-0.5318957 -5.1558471 0.090473272 100 8
-0.50840205 -4.9197035 -1.1418515 8 1
-0.53345579 -5.1533532 0.27151898 84 9
-0.53731084 -5.1905942 -1.0143408 81 2
-0.53510785 -5.1605129 0.4539071 69 10
-0.53204387 -5.1222501 -0.81564939 77 3
-0.53679091 -5.1591964 0.63688928 56 11
-0.53645724 -5.1472559 -0.63542682 102 4
-0.54313523 -5.2025237 0.82847708 21 12
-0.53457266 -5.1205058 -0.45042086 85 5
-0.53682542 -5.1334028 1.0032737 27 13
-0.53559011 -5.1129699 -0.26942554 28 6
-0.54134554 -5.1592236 1.1976395 12 14
-0.53970301 -5.1349292 -0.090124227 69 7
-0.53783238 -5.1085596 1.3763998 16 15
-0.44954044 -4.2204037 -1.1372509 4 0
-0.54798001 -5.1360636 0.090159133 20 8
-0.52681398 -4.9295254 -1.1445509 10 1
-0.54633981 -5.1037974 0.26900685 14 9
-0.55688965 -5.202352 -1.017012 18 2
-0.54695779 -5.1011639 0.44885206 12 10
-0.54928732 -5.1144695 -0.8147108 15 3
-0.54864001 -5.1000533 0.62982082 14 11
-0.55335814 -5.1354837 -0.63420814 21 4
-0.55366081 -5.1298933 0.81721377 12 12
-0.54773939 -5.0750294 -0.44658601 17 5
-0.54862136 -5.0748935 0.99220681 17 13
-0.54676926 -5.0495138 -0.26618072 15 6
-0.55535901 -5.120492 1.1890913 13 14
-0.55265629 -5.0872898 -0.089321412 10 7
-0.55169094 -5.0701618 1.3665646 22 15
-0.46342501 -4.2111282 -1.1351804 4 0
-0.55977046 -5.078465 0.089181796 28 8
-0.54145205 -4.9044123 -1.1391522 8 1
-0.55998081 -5.0641413 0.26701808 19 9
-0.56555116 -5.1145158 -1.0002208 11 2
-0.5614711 -5.0695195 0.44623742 16 10
-0.56190985 -5.0654011 -0.80720192 13 3
-0.56161606 -5.0547018 0.62445855 19 11
-0.56293738 -5.0585504 -0.62494606 21 4
-0.56784475 -5.0945539 0.81189495 15 12
-0.56368631 -5.0572457 -0.44519153 23 5
-0.56262934 -5.0397782 0.98571932 20 13
-0.55973142 -5.0058918 -0.26398259 19 6
-0.56824124 -5.0739794 1.1787435 15 14
-0.56573009 -5.0435982 -0.088588417 13 7
-0.56766045 -5.0528469 1.3624235 30 15
-0.47964749 -4.2229214 -1.1388038 3 0
-0.57523412 -5.0566111 0.088832751 32 8
-0.55768603 -4.8947477 -1.1373526 8 1
-0.57360595 -5.0344748 0.26555267 22 9
-0.57805818 -5.0656967 -0.99106199 15 2
-0.57848507 -5.0615902 0.44571447 22 10
-0.57599378 -5.0320077 -0.80219603 17 3
-0.57744884 -5.0369339 0.62250865 22 11
-0.57564008 -5.0211558 -0.62055874 26 4
-0.58113015 -5.061244 0.80688912 17 12
-0.57746601 -5.0215983 -0.44222823 45 5
-0.57707387 -5.0104785 0.9803766 22 13
-0.57514155 -4.9860506 -0.26304054 41 6
-0.58104414 -5.0372214 1.1706454 15 14
-0.57809138 -5.0039511 -0.087925225 17 7
-0.58219296 -5.0317459 1.3572472 33 15
-0.49230242 -4.2097945 -1.135698 3 0
-0.58990598 -5.0368009 0.088518605 45 8
-0.57482219 -4.9006133 -1.1391522 8 1
-0.59076256 -5.0365119 0.265762 42 9
-0.59347934 -5.0520525 -0.98877227 17 2
-0.5894469 -5.0101752 0.44135666 24 10
-0.59013486 -5.0084901 -0.79875451 18 3
-0.59251934 -5.0211916 0.62080252 27 11
-0.59042567 -5.003449 -0.61860883 30 4
-0.59559238 -5.0396709 0.80376035 18 12
-0.58896327 -4.9761267 -0.43839338 38 5
-0.59183687 -4.9929404 0.97732371 24 13
-0.5907312 -4.9761825 -0.26262185 31 6
-0.59613705 -5.0217204 1.167496 18 14
-0.59137702 -4.9742064 -0.087436557 22 7
-0.59476453 -4.9952583 1.3479296 36 15
-0.50533712 -4.2004671 -1.1336274 3 0
-0.60301703 -5.0050368 0.087995037 46 8
-0.592004 -4.9064188 -1.1409518 10 1
-0.60474586 -5.0046768 0.26419193 28 9
-0.60875285 -5.0304599 -0.98495609 18 2
-0.60366464 -4.9884133 0.43961355 25 10
-0.60388809 -4.9829731 -0.79500008 21 3
-0.60773212 -5.0073752 0.61934006 33 11
-0.60621142 -4.9875631 -0.61690265 30 4
-0.61365741 -5.0414834 0.80438608 19 12
-0.60488319 -4.9621739 -0.4373475 39 5
-0.60640723 -4.9674587 0.97274429 25 13
-0.60737073 -4.9681425 -0.26230782 33 6
-0.61271673 -5.0118713 1.1656964 21 14
-0.60995185 -4.9820366 -0.087611087 21 7
-0.6103164 -4.9778123 1.3437886 36 15
-0.52286923 -4.2158413 -1.1382862 4 0
-0.61938506 -4.9869175 0.08771579 51 8
-0.60589403 -4.8713408 -1.1333034 7 1
-0.62061638 -4.9826074 0.26314521 27 9
-0.62791479 -5.0340395 -0.98610091 23 2
-0.62243676 -4.9901218 0.43996218 28 10
-0.62092334 -4.9709253 -0.79343569 23 3
-0.62386352 -4.9873862 0.61714637 35 11
-0.62300736 -4.9734893 -0.61544025 31 4
-0.63114846 -5.0313601 0.80313462 21 12
-0.62207258 -4.9520164 -0.43665028 40 5
-0.62411982 -4.9613066 0.97198111 28 13
-0.62407804 -4.9539933 -0.2616798 30 6
-0.63059503 -5.0057254 1.1647966 21 14
-0.62620503 -4.9638958 -0.087331839 21 7
-0.62758839 -4.967875 1.341718 37 15
-0.53807282 -4.2119803 -1.1377686 3 0
-0.63816708 -4.9885812 0.087785602 56 8
-0.62423909 -4.8729534 -1.1342032 7 1
-0.63531661 -4.9525642 0.2616798 28 9
-0.64385986 -5.0122313 -0.98228478 25 2
-0.64021462 -4.9838543 0.43961355 27 10
-0.63661844 -4.9490242 -0.79030699 27 3
-0.63833499 -4.955534 0.61349034 34 11
-0.63919985 -4.9554224 -0.61349034 35 4
-0.64806688 -5.0172586 0.80125743 24 12
-0.63970739 -4.9457512 -0.43630162 40 5
-0.6430558 -4.9648271 0.97312593 37 13
-0.64017612 -4.9358273 -0.26084244 32 6
-0.64818585 -4.9975829 1.1634469 22 14
-0.64284974 -4.9496689 -0.087122411 23 7
-0.64479536 -4.9578786 1.3396474 39 15
-0.55426204 -4.2157264 -1.1393216 4 0
-0.65435886 -4.9703484 0.087506369 53 8
-0.64209521 -4.8706326 -1.1342032 7 1
-0.65398735 -4.9541631 0.26188916 29 9
-0.66119736 -5.0020533 -0.98075831 25 2
-0.6563884 -4.965673 0.43821907 29 10
-0.65371644 -4.9388242 -0.78905553 27 3
-0.65884107 -4.9708719 0.61568397 36 11
-0.65735817 -4.9530463 -0.61349034 41 4
-0.66228747 -4.9835191 0.79625154 24 12
-0.65704179 -4.9374485 -0.43577868 48 5
-0.66176713 -4.9663286 0.97388911 40 13
-0.65826261 -4.9334478 -0.26084244 32 6
-0.66495222 -4.9835839 1.1607474 23 14
-0.65886843 -4.9314232 -0.086843178 25 7
-0.66219407 -4.9497375 1.3380945 43 15
-0.56492513 -4.1948185 -1.1341451 4 0
-0.67157334 -4.9801579 0.08771579 56 8
-0.66286993 -4.9091468 -1.1436511 12 1
-0.66901243 -4.9481249 0.2616798 30 9
-0.67393106 -4.9845042 -0.9777053 25 2
-0.67038172 -4.9517398 0.43717319 29 10
-0.66949451 -4.9387031 -0.78936839 28 3
-0.67338598 -4.9609094 0.61470902 35 11
-0.67238086 -4.9470229 -0.61300284 41 4
-0.67847335 -4.9853287 0.79687726 26 12
-0.67147356 -4.9274631 -0.43508145 48 5
-0.67596918 -4.960453 0.97312593 43 13
-0.67343736 -4.9354315 -0.26105177 32 6
-0.68007731 -4.9776087 1.1598476 35 14
-0.67381579 -4.9253659 -0.086773366 24 7
-0.67511922 -4.928493 1.332918 43 15
-0.58029622 -4.1927199 -1.1341451 4 0
-0.68676025 -4.961937 0.087436557 58 8
-0.6862812 -4.9457598 0.2616798 43 9
-0.69219577 -4.9820008 -0.9777053 35 2
-0.69017291 -4.9610896 0.43821907 43 10
-0.68541121 -4.9205647 -0.78686547 31 3
-0.68960387 -4.950664 0.61373407 41 11
-0.68964463 -4.9446459 -0.61300284 48 4
-0.69587088 -4.9829302 0.79687726 39 12
-0.68756658 -4.9171963 -0.4343842 54 5
-0.6908797 -4.9346108 0.96854651 46 13
-0.68763965 -4.9052386 -0.25958636 46 6
-0.69479525 -4.9499946 1.1539989 18 14
-0.69100392 -4.9229841 -0.086773366 25 7
-0.68640411 -4.8840199 1.3215301 21 15
-0.59547067 -4.1944938 -1.1351804 4 0
-0.70381641 -4.951467 0.08729694 56 8
-0.69523621 -4.884985 -1.1391522 12 1
-0.70157063 -4.929493 0.26094711 25 9
-0.70958209 -4.9795542 -0.9777053 37 2
-0.70185798 -4.9192028 0.43473285 16 10
-0.70118582 -4.9083652 -0.78530115 45 3
-0.69903058 -4.8871861 0.60617816 17 11
-0.70551246 -4.9263644 -0.61105299 46 4
-0.70457983 -4.9198518 0.78717828 8 12
-0.70161551 -4.8930721 -0.4324668 35 5
-0.68857068 -4.7961359 0.94183326 11 13
-0.69452828 -4.8316383 -0.25581816 12 6
-0.68347555 -4.7488666 1.107659 7 14
-0.707614 -4.9165831 -0.086703561 25 7
-0.67672116 -4.6961203 1.2713192 15 15
-0.61177832 -4.2038593 -1.1382862 4 0
-0.69921005 -4.8046503 0.084748887 16 8
-0.69597811 -4.7765918 -1.1144075 5 1
-0.69224787 -4.7451906 0.25131726 12 9
-0.71929872 -4.9245958 -0.96740162 11 2
-0.69278955 -4.7373233 0.41887048 10 10
-0.70745438 -4.8376021 -0.7743507 10 3
-0.68791193 -4.6982465 0.58302301 13 11
-0.70197725 -4.788475 -0.594235 15 4
-0.68416947 -4.6613321 0.74619251 9 12
-0.69377965 -4.7210689 -0.41747603 15 5
-0.67678368 -4.6054139 0.90481627 13 13
-0.68118262 -4.629735 -0.24524632 8 6
-0.67110324 -4.5557079 1.0631187 9 14
-0.70259756 -4.7637334 -0.084050797 7 7
-0.66658199 -4.5140834 1.2226613 15 15
-0.62600017 -4.2037182 -1.1388038 4 0
-0.68707818 -4.6083527 0.081328213 17 8
-0.67006636 -4.4888802 -1.047822 5 1
-0.67937773 -4.5512586 0.24116412 11 9
-0.70138329 -4.6930642 -0.92237073 10 2
-0.67901111 -4.5379543 0.40143937 11 10
-0.69536257 -4.6416988 -0.74337667 10 3
-0.67692512 -4.5132451 0.56035525 12 11
-0.69156772 -4.6053915 -0.57181102 15 4
-0.67380917 -4.4871316 0.71866006 9 12
-0.68040162 -4.5256581 -0.40039349 15 5
-0.66713959 -4.4321814 0.87123388 12 13
-0.67412448 -4.4732819 -0.2370819 12 6
-0.66199869 -4.3876219 1.0244272 9 14
-0.6903469 -4.5755091 -0.08076974 7 7
-0.65528935 -4.3380213 1.1755562 13 15
-0.63688391 -4.1766806 -1.1320745 13 0
-0.67703533 -4.4399934 0.078396209 17 8
-0.67818433 -4.4423256 -1.0374742 11 1
-0.6702143 -4.3849897 0.23247635 10 9
-0.69548821 -4.5450377 -0.89374936 11 2
-0.66950357 -4.3701258 0.38679719 10 10
-0.68622208 -4.4792547 -0.7177214 10 3
-0.66781187 -4.3540034 0.54085618 11 11
-0.68062299 -4.4323707 -0.55060571 14 4
-0.66485459 -4.3246522 0.69300479 8 12
-0.66952378 -4.3499651 -0.38505405 13 5
-0.65495473 -4.2553086 0.83688831 11 13
-0.66522878 -4.3170528 -0.22891749 9 6
-0.65396386 -4.2390299 0.99023461 9 14
-0.67884314 -4.3952079 -0.077628307 7 7
-0.64326847 -4.1600647 1.1279335 12 15
-0.65013587 -4.1707282 -1.1310393 13 0
-0.66724551 -4.2755895 0.075534016 14 8
-0.67864603 -4.3436623 -1.0149791 12 1
-0.66545439 -4.2543612 0.22567266 11 9
-0.68416089 -4.3739548 -0.86054862 10 2
-0.66179842 -4.2261567 0.37424675 10 10
-0.67278808 -4.2914357 -0.68799889 8 3
-0.65961301 -4.2026038 0.52233207 10 11
-0.67144001 -4.2730856 -0.53110665 12 4
-0.65784436 -4.1818056 0.67047822 8 12
-0.66176635 -4.2019596 -0.37215498 13 5
-0.64720243 -4.1094847 0.80864859 11 13
-0.65665388 -4.1647644 -0.22096242 9 6
-0.64809573 -4.1058273 0.95964122 10 14
-0.67170727 -4.2505984 -0.075115159 7 7
-0.63846594 -4.0356736 1.0948045 14 15
-0.65993637 -4.1339788 -1.1217217 5 0
-0.66010022 -4.1350055 0.07309068 15 8
-0.67043096 -4.1950188 -0.98078656 12 1
-0.65474176 -4.0922656 0.21719423 10 9
-0.67752087 -4.2299042 -0.83269054 11 2
-0.65583259 -4.0899286 0.36239356 11 10
-0.66690797 -4.1543632 -0.66641092 10 3
-0.64973629 -4.0473957 0.5033204 11 11
-0.66241258 -4.1217599 -0.51258254 12 4
-0.65361071 -4.0624661 0.6517061 8 12
-0.65298516 -4.0540633 -0.35925597 13 5
-0.63913262 -3.9636564 0.7804088 11 13
-0.64581382 -4.000648 -0.21237932 10 6
-0.64231008 -3.9745312 0.92949772 10 14
-0.66484749 -4.1139903 -0.072741628 7 7
-0.63280272 -3.9113693 1.0616758 13 15
-0.64791054 -3.9695873 -1.0777225 3 0
-0.65267813 -3.9944119 0.070647344 15 8
-0.6612646 -4.0425248 -0.94569421 12 1
-0.64516401 -3.944097 0.20944853 10 9
-0.66943812 -4.0880175 -0.80521399 11 2
-0.64625305 -3.9421203 0.34949452 11 10
-0.66317117 -4.0408998 -0.64857739 10 3
-0.64203882 -3.9078691 0.48625872 12 11
-0.65528578 -3.9841495 -0.49576455 13 4
-0.64534616 -3.9237163 0.62980521 9 12
-0.64641577 -3.9259408 -0.34810004 14 5
-0.63125229 -3.8296776 0.75445884 12 13
-0.64026445 -3.8801327 -0.20609902 10 6
-0.6345821 -3.8415225 0.89890444 10 14
-0.65573782 -3.9695911 -0.070228487 7 7
-0.62249786 -3.7642832 1.0223353 14 15
-0.63760662 -3.8224814 -1.0383821 6 0
-0.64486384 -3.865989 0.068413429 16 8
-0.65476638 -3.9211383 -0.91780037 15 1
-0.63949853 -3.8255954 0.20327288 12 9
-0.66102237 -3.9501123 -0.7785008 13 2
-0.64124644 -3.8278348 0.33955875 12 10
-0.65241587 -3.8945093 -0.62542504 10 3
-0.63726521 -3.7999997 0.47309685 13 11
-0.64450204 -3.8390422 -0.47797161 11 4
-0.63612133 -3.7850759 0.60790437 9 12
-0.63896018 -3.7979147 -0.3369441 14 5
-0.6270107 -3.7268887 0.73461467 13 13
-0.63322574 -3.7598166 -0.1998187 9 6
-0.63014662 -3.7375507 0.8750596 12 14
-0.64496279 -3.8213644 -0.067645527 9 7
-0.6182546 -3.6592255 0.99438286 14 15
-0.64152616 -3.7689259 -1.0244058 12 0
-0.63887292 -3.7493801 0.066388957 16 8
-0.64616817 -3.7882013 -0.88720697 13 1
-0.63469476 -3.7170267 0.1976206 11 9
-0.65428996 -3.831784 -0.75560367 11 2
-0.63312346 -3.7039251 0.32875144 11 10
-0.64801514 -3.787066 -0.6085301 12 3
-0.63175797 -3.6881828 0.45944747 12 11
-0.64145941 -3.7408988 -0.46602839 12 4
-0.62994653 -3.6699123 0.58975804 9 12
-0.63196939 -3.6778445 -0.32648543 15 5
-0.61940318 -3.6047137 0.71095431 12 13
-0.62467676 -3.631609 -0.19311969 11 6
-0.62467033 -3.6277819 0.84986508 12 14
-0.64097488 -3.7185872 -0.065865383 10 7
-0.61394268 -3.5580511 0.96746564 15 15
-0.64639479 -3.7151613 -1.0104296 13 0
-0.62933338 -3.617101 0.064085238 16 8
-0.6413309 -3.6822512 -0.86291224 14 1
-0.62845582 -3.6046038 0.19175896 12 9
-0.64942801 -3.721055 -0.73423308 12 2
-0.62612128 -3.5838201 0.31829277 12 10
-0.64011174 -3.6601315 -0.58850652 12 3
-0.62479323 -3.572541 0.44531062 14 11
-0.63294774 -3.6154497 -0.45067286 11 4
-0.62706798 -3.5781875 0.57536602 9 12
-0.62483603 -3.5617957 -0.31637534 13 5
-0.6115576 -3.4825318 0.68729407 13 13
-0.62207729 -3.5388086 -0.1883048 10 6
-0.61972553 -3.5218284 0.82557034 11 14
-0.6307317 -3.5843749 -0.063526757 9 7
-0.60491055 -3.4341228 0.93433678 14 15
-0.63875425 -3.5968544 -0.97885364 12 0
-0.62508696 -3.5163286 0.062339999 16 8
-0.63570392 -3.5724344 -0.83771771 14 1
-0.62353861 -3.5040696 0.18652536 11 9
-0.64416569 -3.6163251 -0.71400726 13 2
-0.62183988 -3.4874632 0.30992582 13 10
-0.63205814 -3.5411963 -0.56973439 12 3
-0.61763287 -3.4568865 0.43117377 13 11
-0.63116699 -3.5290799 -0.4401921 12 4
-0.6221658 -3.4787507 0.55972254 9 12
-0.62041205 -3.4654551 -0.3080084 15 5
-0.60708719 -3.3876176 0.66897637 13 13
-0.61185598 -3.4107995 -0.18160579 11 6
-0.61203927 -3.408396 0.79947603 11 14
-0.62945646 -3.5053911 -0.062165473 10 7
-0.60117251 -3.3445268 0.91052544 14 15
-0.6358068 -3.5090625 -0.95555997 13 0
-0.61820519 -3.4119179 0.060524948 15 8
-0.62807208 -3.462929 -0.81252325 14 1
-0.61578757 -3.391824 0.18066373 12 9
-0.63853103 -3.5136108 -0.6941632 13 2
-0.61618 -3.3872602 0.30121022 14 10
-0.62753493 -3.4496806 -0.55534244 12 3
-0.60917825 -3.3454523 0.4175244 14 11
-0.62044054 -3.4039335 -0.42483655 11 4
-0.61657685 -3.3793929 0.54407912 10 12
-0.61389142 -3.3613496 -0.29894418 14 5
-0.60209268 -3.2967458 0.65142196 14 13
-0.60807812 -3.3262341 -0.17720957 11 6
-0.60720193 -3.3181698 0.77878052 12 14
-0.6215117 -3.3930218 -0.060210802 10 7
-0.60030091 -3.2740014 0.89189047 15 15
-0.62604564 -3.3910501 -0.92398405 12 0
-0.61702943 -3.338949 0.059268374 17 8
-0.623851 -3.3725688 -0.79182774 15 1
-0.60871452 -3.2875321 0.17522079 12 9
-0.63087755 -3.4072301 -0.67355579 14 2
-0.60998124 -3.2911651 0.29284328 13 10
-0.62119639 -3.3484151 -0.53938609 14 3
-0.60635459 -3.2652366 0.40777487 13 11
-0.61526835 -3.310019 -0.41338086 13 4
-0.61030293 -3.2801175 0.52843571 10 12
-0.61118561 -3.2848618 -0.29232034 17 5
-0.59634238 -3.2019806 0.63310426 12 13
-0.60211587 -3.2298465 -0.17218532 16 6
-0.60090774 -3.2202466 0.75628549 10 14
-0.61499351 -3.292547 -0.058465563 11 7
-0.59184378 -3.1655452 0.8629027 14 15
-0.62286955 -3.3091068 -0.9022432 16 0
-0.60720646 -3.2227979 0.057243895 15 8
-0.61828464 -3.2784514 -0.77023244 14 1
-0.60462594 -3.2029586 0.17082457 12 9
-0.62892824 -3.3316982 -0.65905434 14 2
-0.60223007 -3.1872127 0.28377908 14 10
-0.61599422 -3.2569418 -0.52499413 13 3
-0.60150206 -3.1772804 0.39705035 14 11
-0.60833949 -3.2103319 -0.40119389 13 4
-0.60407907 -3.1848102 0.51341796 10 12
-0.60111332 -3.1691744 -0.28221029 17 5
-0.59140372 -3.1150122 0.6163131 15 13
-0.59735245 -3.1433532 -0.16768442 13 6
-0.59903502 -3.1492105 0.740089 12 14
-0.60778236 -3.1921599 -0.056720324 11 7
-0.58263707 -3.057189 0.833915 14 15
-0.61658216 -3.2139468 -0.87687898 17 0
-0.60412216 -3.1460335 0.055917513 17 8
-0.61206865 -3.1844151 -0.74863708 14 1
-0.59865665 -3.1146362 0.16621901 11 9
-0.62052578 -3.2253759 -0.63844693 13 2
-0.59526783 -3.0911818 0.27541214 13 10
-0.61502123 -3.1907628 -0.51466948 19 3
-0.59303445 -3.0738056 0.38437593 14 11
-0.60787386 -3.1477673 -0.39363801 14 4
-0.59815687 -3.0974498 0.49965176 11 12
-0.60082835 -3.1083715 -0.27698094 17 5
-0.5858646 -3.0281186 0.59952188 15 13
-0.59351188 -3.0647764 -0.16360222 15 6
-0.59222454 -3.05527 0.7184937 11 14
-0.6039046 -3.1155272 -0.055393942 11 7
-0.57878947 -2.9831738 0.81424475 14 15
